1535.853027 1547.889038 1766.516479 -2.126772 3.292210 4.900034 
1535.853027 1600.708496 1727.810669 -2.126773 3.680646 4.615388 
1535.853027 1650.197388 1684.928345 -2.126773 4.044597 4.300023 
1535.853149 1696.026245 1638.154907 -2.126741 4.381643 3.956046 
1535.853149 1737.890137 1587.801636 -2.126746 4.689517 3.585736 
1535.853271 1775.510376 1534.203613 -2.126760 4.966177 3.191566 
1535.853271 1808.636841 1477.717529 -2.126760 5.209795 2.776158 
1535.853394 1837.048828 1418.719360 -2.126727 5.418752 2.342278 
1535.853394 1860.557617 1357.601562 -2.126801 5.591617 1.892802 
1535.853394 1879.006226 1294.770996 -2.126769 5.727302 1.430732 
1535.853394 1892.272339 1230.645752 -2.126799 5.824854 0.959149 
1535.853394 1900.267456 1165.652466 -2.126756 5.883666 0.481170 
1552.530640 1910.231689 1100.223877 -2.832367 5.602191 0.000002 
1552.530640 1907.536499 1034.200806 -2.832361 5.583553 -0.456630 
1552.530640 1899.468750 968.617126 -2.832363 5.527754 -0.910223 
1552.530640 1886.082153 903.909180 -2.832369 5.435168 -1.357753 
1552.530518 1867.465820 840.507751 -2.832352 5.306419 -1.796262 
1552.530518 1843.743530 778.834656 -2.832375 5.142342 -2.222797 
1552.530518 1815.073364 719.300415 -2.832366 4.944057 -2.634551 
1552.530396 1781.645996 662.301086 -2.832369 4.712866 -3.028770 
1552.530396 1743.683838 608.216064 -2.832357 4.450315 -3.402839 
1552.530396 1701.439575 557.405273 -2.832359 4.158142 -3.754257 
1552.530273 1655.194336 510.206879 -2.832365 3.838297 -4.080690 
1552.530273 1605.255859 466.934967 -2.832368 3.492910 -4.379969 
1552.530151 1551.956421 427.877441 -2.832375 3.124281 -4.650094 
1552.530029 1495.650879 393.294281 -2.832366 2.734859 -4.889284 
1552.530029 1436.713867 363.415649 -2.832365 2.327238 -5.095932 
1552.529907 1375.537476 338.440369 -2.832369 1.904128 -5.268664 
1552.529785 1312.528931 318.534546 -2.832374 1.468346 -5.406336 
1552.529785 1248.107544 303.830811 -2.832367 1.022793 -5.508033 
1552.529663 1182.702026 294.426910 -2.832372 0.570435 -5.573071 
1552.529541 1116.747681 290.385498 -2.832379 0.114279 -5.601019 
1552.529541 1050.683350 291.733398 -2.832370 -0.342636 -5.591702 
1552.529419 984.948730 298.461609 -2.832371 -0.797270 -5.545168 
1552.529297 919.981262 310.525482 -2.832380 -1.246598 -5.461728 
1552.529175 856.213257 327.844666 -2.832378 -1.687634 -5.341945 
1552.529175 794.069092 350.303894 -2.832374 -2.117439 -5.186614 
1552.529053 733.962341 377.753723 -2.832377 -2.533147 -4.996765 
1552.528931 676.293030 410.011475 -2.832381 -2.932001 -4.773661 
1552.528931 621.444885 446.862457 -2.832384 -3.311343 -4.518790 
1552.528809 569.783020 488.061493 -2.832376 -3.668649 -4.233853 
1552.528809 521.651062 533.334290 -2.832373 -4.001544 -3.920735 
1552.528687 477.369476 582.379761 -2.832387 -4.307798 -3.581524 
1552.528687 437.232849 634.871277 -2.832378 -4.585396 -3.218482 
1552.528564 401.508392 690.459717 -2.832370 -4.832479 -2.834022 
1552.528564 370.433685 748.775024 -2.832381 -5.047394 -2.430699 
1552.528564 344.215698 809.429199 -2.832377 -5.228724 -2.011203 
1552.528442 323.028748 872.018555 -2.832376 -5.375259 -1.578320 
1552.528442 307.013977 936.126587 -2.832377 -5.486021 -1.134932 
1552.528442 296.277893 1001.326660 -2.832381 -5.560270 -0.683997 
1552.528442 290.891876 1067.184814 -2.832385 -5.597520 -0.228507 
1552.528442 290.891876 1133.262939 -2.832385 -5.597520 0.228506 
1552.528442 296.277893 1199.121094 -2.832382 -5.560270 0.683995 
1552.528442 307.013977 1264.321167 -2.832379 -5.486020 1.134931 
1552.528442 323.028748 1328.429199 -2.832371 -5.375261 1.578322 
1552.528564 344.215698 1391.018555 -2.832374 -5.228726 2.011202 
1552.528564 370.433685 1451.672729 -2.832380 -5.047395 2.430696 
1552.528564 401.508392 1509.988037 -2.832367 -4.832479 2.834025 
1552.528687 437.232849 1565.576538 -2.832375 -4.585397 3.218483 
1552.528687 477.369476 1618.067993 -2.832379 -4.307803 3.581523 
1552.528809 521.651062 1667.113525 -2.832376 -4.001542 3.920736 
1552.528809 569.783020 1712.386353 -2.832379 -3.668649 4.233851 
1552.528931 621.444885 1753.585327 -2.832386 -3.311341 4.518791 
1552.528931 676.293030 1790.436279 -2.832383 -2.932001 4.773659 
1552.529053 733.962341 1822.694092 -2.832387 -2.533146 4.996760 
1552.529175 794.069092 1850.143921 -2.832380 -2.117436 5.186612 
1552.529175 856.213257 1872.603149 -2.832382 -1.687635 5.341944 
1552.529297 919.981262 1889.922363 -2.832388 -1.246601 5.461723 
1552.529419 984.948730 1901.986206 -2.832367 -0.797265 5.545171 
1552.529541 1050.683350 1908.714355 -2.832368 -0.342634 5.591703 
1552.529541 1116.747681 1910.062256 -2.832374 0.114275 5.601022 
1552.529663 1182.702026 1906.020874 -2.832364 0.570440 5.573075 
1552.529785 1248.107544 1896.616943 -2.832369 1.022793 5.508033 
1552.529785 1312.528931 1881.913208 -2.832363 1.468347 5.406342 
1552.529907 1375.537476 1862.007446 -2.832367 1.904128 5.268667 
1552.530029 1436.713867 1837.032104 -2.832359 2.327238 5.095935 
1552.530029 1495.650879 1807.153564 -2.832364 2.734864 4.889284 
1552.530151 1551.956421 1772.570312 -2.832374 3.124279 4.650095 
1552.530273 1605.255859 1733.512817 -2.832369 3.492909 4.379969 
1552.530273 1655.194336 1690.240967 -2.832364 3.838299 4.080690 
1552.530396 1701.439575 1643.042480 -2.832358 4.158144 3.754256 
1552.530396 1743.683838 1592.231689 -2.832364 4.450310 3.402838 
1552.530396 1781.645996 1538.146729 -2.832371 4.712864 3.028770 
1552.530518 1815.073364 1481.147461 -2.832370 4.944055 2.634551 
1552.530518 1843.743530 1421.613159 -2.832379 5.142337 2.222801 
1552.530518 1867.465820 1359.940063 -2.832351 5.306422 1.796253 
1552.530640 1886.082153 1296.538574 -2.832365 5.435169 1.357757 
1552.530640 1899.468750 1231.830688 -2.832361 5.527755 0.910222 
1552.530640 1907.536499 1166.246948 -2.832360 5.583555 0.456628 
1581.084351 1926.681152 1100.223877 -3.249463 5.375007 0.000002 
1581.084351 1923.931152 1032.859985 -3.249458 5.357126 -0.438115 
1581.084351 1915.699585 965.944458 -3.249463 5.303588 -0.873309 
1581.084351 1902.041138 899.922485 -3.249461 5.214757 -1.302698 
1581.084351 1883.046631 835.233521 -3.249458 5.091227 -1.723413 
1581.084229 1858.842773 772.307983 -3.249461 4.933811 -2.132657 
1581.084229 1829.590332 711.564636 -3.249460 4.743562 -2.527715 
1581.084229 1795.484009 653.407837 -3.249452 4.521749 -2.905952 
1581.084106 1756.750977 598.224487 -3.249461 4.269840 -3.264840 
1581.084106 1713.648804 546.381836 -3.249462 3.989516 -3.602009 
1581.083984 1666.464478 498.224976 -3.249461 3.682645 -3.915207 
1581.083984 1615.511841 454.074249 -3.249461 3.351265 -4.202350 
1581.083862 1561.130127 414.223602 -3.249461 2.997584 -4.461524 
1581.083862 1503.681030 378.938141 -3.249458 2.623954 -4.691012 
1581.083740 1443.547119 348.452698 -3.249464 2.232864 -4.889275 
1581.083618 1381.128418 322.970215 -3.249465 1.826911 -5.055005 
1581.083618 1316.840332 302.660156 -3.249463 1.408800 -5.187099 
1581.083496 1251.110718 287.657867 -3.249466 0.981318 -5.284666 
1581.083374 1184.376953 278.062988 -3.249466 0.547306 -5.347068 
1581.083252 1117.083252 273.939423 -3.249469 0.109645 -5.373885 
1581.083252 1049.677246 275.314758 -3.249470 -0.328741 -5.364940 
1581.083130 982.607727 282.179657 -3.249466 -0.764938 -5.320296 
1581.083008 916.320862 294.488495 -3.249465 -1.196046 -5.240245 
1581.082886 851.257874 312.159363 -3.249466 -1.619198 -5.125319 
1581.082886 787.851746 335.074738 -3.249468 -2.031570 -4.976283 
1581.082764 726.524353 363.082001 -3.249467 -2.430420 -4.794135 
1581.082642 667.683899 395.994781 -3.249469 -2.813101 -4.580079 
1581.082642 611.721924 433.594177 -3.249471 -3.177061 -4.335544 
1581.082520 559.010864 475.629822 -3.249471 -3.519876 -4.062158 
1581.082520 509.901520 521.822021 -3.249470 -3.839267 -3.761740 
1581.082397 464.720612 571.863464 -3.249472 -4.133109 -3.436285 
1581.082397 423.768951 625.421021 -3.249470 -4.399448 -3.087963 
1581.082397 387.318970 682.138306 -3.249471 -4.636505 -2.719095 
1581.082275 355.613220 741.637939 -3.249472 -4.842709 -2.332128 
1581.082275 328.862793 803.523804 -3.249475 -5.016683 -1.929642 
1581.082275 307.245605 867.384216 -3.249468 -5.157279 -1.514313 
1581.082275 290.905609 932.794128 -3.249469 -5.263548 -1.088910 
1581.082153 279.951447 999.318298 -3.249474 -5.334787 -0.656261 
1581.082153 274.456085 1066.513916 -3.249472 -5.370529 -0.219239 
1581.082153 274.456085 1133.933838 -3.249473 -5.370528 0.219239 
1581.082153 279.951447 1201.129517 -3.249473 -5.334787 0.656259 
1581.082275 290.905609 1267.653687 -3.249468 -5.263548 1.088911 
1581.082275 307.245605 1333.063599 -3.249469 -5.157277 1.514315 
1581.082275 328.862793 1396.923950 -3.249477 -5.016683 1.929637 
1581.082275 355.613220 1458.809937 -3.249474 -4.842706 2.332128 
1581.082397 387.318970 1518.309448 -3.249472 -4.636504 2.719095 
1581.082397 423.768951 1575.026733 -3.249471 -4.399447 3.087963 
1581.082397 464.720612 1628.584351 -3.249474 -4.133108 3.436283 
1581.082520 509.901520 1678.625732 -3.249467 -3.839268 3.761742 
1581.082520 559.010864 1724.817993 -3.249469 -3.519877 4.062158 
1581.082642 611.721924 1766.853638 -3.249471 -3.177060 4.335544 
1581.082642 667.683899 1804.453003 -3.249470 -2.813102 4.580078 
1581.082764 726.524353 1837.365845 -3.249467 -2.430420 4.794136 
1581.082886 787.851746 1865.373047 -3.249470 -2.031571 4.976283 
1581.082886 851.257874 1888.288452 -3.249467 -1.619199 5.125318 
1581.083008 916.320862 1905.959351 -3.249461 -1.196045 5.240248 
1581.083130 982.607727 1918.268188 -3.249463 -0.764935 5.320299 
1581.083252 1049.677246 1925.133057 -3.249476 -0.328744 5.364937 
1581.083252 1117.083252 1926.508423 -3.249470 0.109648 5.373885 
1581.083374 1184.376953 1922.384766 -3.249465 0.547308 5.347069 
1581.083496 1251.110718 1912.789917 -3.249471 0.981316 5.284664 
1581.083618 1316.840332 1897.787598 -3.249467 1.408801 5.187095 
1581.083618 1381.128418 1877.477539 -3.249468 1.826909 5.055005 
1581.083740 1443.547119 1851.995117 -3.249465 2.232862 4.889276 
1581.083862 1503.681030 1821.509644 -3.249458 2.623956 4.691012 
1581.083862 1561.130127 1786.224243 -3.249463 2.997583 4.461524 
1581.083984 1615.511841 1746.373535 -3.249457 3.351268 4.202350 
1581.083984 1666.464478 1702.222778 -3.249456 3.682648 3.915208 
1581.084106 1713.648804 1654.065918 -3.249464 3.989513 3.602010 
1581.084106 1756.750977 1602.223389 -3.249462 4.269838 3.264842 
1581.084229 1795.484009 1547.039917 -3.249452 4.521752 2.905949 
1581.084229 1829.590332 1488.883179 -3.249461 4.743558 2.527719 
1581.084229 1858.842773 1428.139893 -3.249456 4.933814 2.132657 
1581.084351 1883.046631 1365.214233 -3.249455 5.091229 1.723412 
1581.084351 1902.041138 1300.525269 -3.249465 5.214754 1.302699 
1581.084351 1915.699585 1234.503296 -3.249463 5.303587 0.873309 
1581.084351 1923.931152 1167.587769 -3.249459 5.357125 0.438112 
1617.634766 1949.816284 1100.223877 -3.270992 5.356630 0.000001 
1617.634766 1946.989258 1030.974243 -3.270990 5.338807 -0.436615 
1617.634766 1938.527344 962.185547 -3.270991 5.285455 -0.870321 
1617.634766 1924.486572 894.315430 -3.270992 5.196927 -1.298243 
1617.634766 1904.960449 827.815552 -3.270996 5.073814 -1.717519 
1617.634766 1880.078857 763.128540 -3.270986 4.916943 -2.125371 
1617.634644 1850.007568 700.684875 -3.270989 4.727344 -2.519073 
1617.634644 1814.946533 640.900024 -3.270994 4.506286 -2.896008 
1617.634521 1775.129272 584.171875 -3.270989 4.255241 -3.253677 
1617.634521 1730.820557 530.877991 -3.270992 3.975875 -3.589693 
1617.634399 1682.315308 481.373077 -3.270990 3.670051 -3.901823 
1617.634399 1629.936279 435.986450 -3.270990 3.339807 -4.187982 
1617.634277 1574.032227 395.020233 -3.270990 2.987335 -4.446270 
1617.634277 1514.975098 358.747009 -3.270994 2.614984 -4.674969 
1617.634155 1453.157837 327.408203 -3.270993 2.225230 -4.872559 
1617.634033 1388.991821 301.212372 -3.270995 1.820665 -5.037722 
1617.633911 1322.904053 280.333832 -3.270994 1.403984 -5.169362 
1617.633911 1255.334473 264.911469 -3.270996 0.977963 -5.266597 
1617.633789 1186.732666 255.048035 -3.270996 0.545435 -5.328786 
1617.633667 1117.555054 250.809067 -3.270996 0.109272 -5.355512 
1617.633545 1048.262207 252.222839 -3.270998 -0.327618 -5.346598 
1617.633545 979.315186 259.279907 -3.270996 -0.762325 -5.302105 
1617.633423 911.172791 271.933380 -3.270998 -1.191956 -5.222326 
1617.633301 844.288452 290.098907 -3.270997 -1.613660 -5.107793 
1617.633179 779.107361 313.655731 -3.271002 -2.024621 -4.959266 
1617.633179 716.063232 342.446991 -3.271000 -2.422110 -4.777741 
1617.633057 655.575623 376.281128 -3.271001 -2.803481 -4.564418 
1617.632935 598.047119 414.933014 -3.271003 -3.166196 -4.320718 
1617.632935 543.860474 458.145447 -3.270998 -3.507843 -4.048268 
1617.632812 493.376434 505.630737 -3.271001 -3.826139 -3.748878 
1617.632812 446.930756 557.072937 -3.271000 -4.118978 -3.424537 
1617.632690 404.832733 612.129761 -3.271004 -4.384401 -3.077405 
1617.632690 367.362366 670.434753 -3.271005 -4.620649 -2.709796 
1617.632568 334.769135 731.599915 -3.271005 -4.826148 -2.324154 
1617.632568 307.269806 795.218201 -3.271005 -4.999530 -1.923042 
1617.632568 285.047546 860.866272 -3.271003 -5.139643 -1.509133 
1617.632568 268.250122 928.107239 -3.271004 -5.245547 -1.085187 
1617.632568 256.989288 996.493591 -3.271003 -5.316546 -0.654016 
1617.632568 251.340088 1065.570312 -3.271003 -5.352165 -0.218489 
1617.632568 251.340088 1134.877563 -3.271003 -5.352164 0.218490 
1617.632568 256.989288 1203.954224 -3.271004 -5.316546 0.654016 
1617.632568 268.250122 1272.340576 -3.271005 -5.245548 1.085186 
1617.632568 285.047546 1339.581543 -3.271004 -5.139642 1.509134 
1617.632568 307.269806 1405.229614 -3.271004 -4.999531 1.923041 
1617.632568 334.769135 1468.847900 -3.271004 -4.826149 2.324155 
1617.632690 367.362366 1530.013062 -3.271006 -4.620648 2.709796 
1617.632690 404.832733 1588.317993 -3.271005 -4.384402 3.077403 
1617.632812 446.930756 1643.374878 -3.271002 -4.118976 3.424538 
1617.632812 493.376434 1694.817017 -3.271003 -3.826139 3.748876 
1617.632935 543.860474 1742.302368 -3.271001 -3.507842 4.048268 
1617.632935 598.047119 1785.514771 -3.271002 -3.166197 4.320719 
1617.633057 655.575623 1824.166626 -3.270998 -2.803483 4.564419 
1617.633179 716.063232 1858.000854 -3.270997 -2.422112 4.777742 
1617.633179 779.107361 1886.792114 -3.271000 -2.024623 4.959267 
1617.633301 844.288452 1910.348877 -3.270991 -1.613657 5.107798 
1617.633423 911.172791 1928.514404 -3.270997 -1.191957 5.222326 
1617.633545 979.315186 1941.167847 -3.270997 -0.762325 5.302104 
1617.633545 1048.262207 1948.224976 -3.270998 -0.327619 5.346597 
1617.633667 1117.555054 1949.638672 -3.270993 0.109274 5.355515 
1617.633789 1186.732666 1945.399780 -3.270998 0.545431 5.328785 
1617.633911 1255.334473 1935.536377 -3.270998 0.977961 5.266596 
1617.633911 1322.904053 1920.114014 -3.270993 1.403986 5.169361 
1617.634033 1388.991821 1899.235474 -3.270993 1.820665 5.037723 
1617.634155 1453.157837 1873.039551 -3.270994 2.225230 4.872558 
1617.634277 1514.975098 1841.700806 -3.270995 2.614982 4.674968 
1617.634277 1574.032227 1805.427490 -3.270989 2.987339 4.446270 
1617.634399 1629.936279 1764.461304 -3.270992 3.339805 4.187982 
1617.634399 1682.315308 1719.074707 -3.270994 3.670049 3.901821 
1617.634521 1730.820557 1669.569824 -3.270996 3.975872 3.589694 
1617.634521 1775.129272 1616.275879 -3.270987 4.255246 3.253674 
1617.634644 1814.946533 1559.547729 -3.270993 4.506284 2.896012 
1617.634644 1850.007568 1499.762939 -3.270988 4.727344 2.519073 
1617.634766 1880.078857 1437.319214 -3.270988 4.916944 2.125366 
1617.634766 1904.960449 1372.632202 -3.270999 5.073810 1.717523 
1617.634766 1924.486572 1306.132446 -3.270993 5.196926 1.298242 
1617.634766 1938.527344 1238.262207 -3.270989 5.285456 0.870320 
1617.634766 1946.989258 1169.473511 -3.270989 5.338808 0.436615 
1660.148804 1974.871338 1100.223877 -2.908780 5.548192 -0.000000 
1660.148804 1971.960938 1028.932129 -2.908780 5.529732 -0.452230 
1660.148804 1963.249390 958.114685 -2.908773 5.474475 -0.901448 
1660.148804 1948.794556 888.243042 -2.908777 5.382781 -1.344667 
1660.148804 1928.692627 819.782043 -2.908772 5.255267 -1.778946 
1660.148804 1903.077271 753.187378 -2.908785 5.092777 -2.201372 
1660.148682 1872.119141 688.902161 -2.908787 4.896398 -2.609156 
1660.148682 1836.024170 627.354187 -2.908782 4.667436 -2.999578 
1660.148682 1795.032593 568.953186 -2.908784 4.407414 -3.370035 
1660.148560 1749.417236 514.087646 -2.908780 4.118060 -3.718066 
1660.148560 1699.481567 463.122711 -2.908782 3.801298 -4.041357 
1660.148438 1645.557861 416.397644 -2.908787 3.459242 -4.337747 
1660.148438 1588.005127 374.223236 -2.908786 3.094166 -4.605274 
1660.148315 1527.206299 336.880341 -2.908785 2.708499 -4.842155 
1660.148193 1463.565918 304.617279 -2.908781 2.304807 -5.046811 
1660.148071 1397.507690 277.648926 -2.908782 1.885773 -5.217881 
1660.148071 1329.470947 256.154663 -2.908786 1.454192 -5.354227 
1660.147949 1259.908691 240.277527 -2.908787 1.012937 -5.454940 
1660.147827 1189.283691 230.123169 -2.908785 0.564938 -5.519353 
1660.147705 1118.066162 225.759201 -2.908784 0.113178 -5.547036 
1660.147705 1046.729736 227.214691 -2.908785 -0.339336 -5.537804 
1660.147583 975.749390 234.479904 -2.908792 -0.789584 -5.491715 
1660.147461 905.597412 247.506439 -2.908787 -1.234585 -5.409085 
1660.147339 836.740662 266.207764 -2.908790 -1.671366 -5.290456 
1660.147217 769.637329 290.459229 -2.908791 -2.097026 -5.136620 
1660.147217 704.733948 320.099579 -2.908789 -2.508731 -4.948602 
1660.147095 642.462524 354.931519 -2.908785 -2.903741 -4.727652 
1660.146973 583.237488 394.723297 -2.908786 -3.279429 -4.475237 
1660.146973 527.452881 439.210052 -2.908792 -3.633288 -4.193041 
1660.146851 475.479950 488.095764 -2.908792 -3.962970 -3.882943 
1660.146851 427.664581 541.055054 -2.908794 -4.266278 -3.547004 
1660.146729 384.325012 597.735535 -2.908792 -4.541197 -3.187459 
1660.146729 345.749664 657.759949 -2.908793 -4.785894 -2.806704 
1660.146606 312.195190 720.728943 -2.908791 -4.998743 -2.407270 
1660.146606 283.884949 786.223389 -2.908791 -5.178327 -1.991813 
1660.146606 261.007324 853.807434 -2.908798 -5.323443 -1.563105 
1660.146606 243.714508 923.031372 -2.908798 -5.433137 -1.123995 
1660.146484 232.121643 993.434509 -2.908793 -5.506677 -0.677403 
1660.146484 226.305847 1064.548340 -2.908793 -5.543568 -0.226303 
1660.146484 226.305847 1135.899536 -2.908793 -5.543569 0.226303 
1660.146484 232.121643 1207.013306 -2.908793 -5.506677 0.677405 
1660.146606 243.714508 1277.416382 -2.908798 -5.433138 1.123994 
1660.146606 261.007324 1346.640381 -2.908798 -5.323443 1.563104 
1660.146606 283.884949 1414.224365 -2.908792 -5.178325 1.991814 
1660.146606 312.195190 1479.718872 -2.908789 -4.998743 2.407270 
1660.146729 345.749664 1542.687866 -2.908790 -4.785895 2.806705 
1660.146729 384.325012 1602.712280 -2.908790 -4.541198 3.187459 
1660.146851 427.664581 1659.392822 -2.908790 -4.266279 3.547005 
1660.146851 475.479950 1712.352051 -2.908790 -3.962969 3.882943 
1660.146973 527.452881 1761.237793 -2.908788 -3.633289 4.193043 
1660.146973 583.237488 1805.724487 -2.908790 -3.279427 4.475237 
1660.147095 642.462524 1845.516235 -2.908790 -2.903739 4.727650 
1660.147217 704.733948 1880.348145 -2.908789 -2.508731 4.948603 
1660.147217 769.637329 1909.988525 -2.908790 -2.097027 5.136620 
1660.147339 836.740662 1934.239990 -2.908794 -1.671368 5.290454 
1660.147461 905.597412 1952.941406 -2.908786 -1.234584 5.409084 
1660.147583 975.749390 1965.967896 -2.908788 -0.789587 5.491717 
1660.147705 1046.729736 1973.233154 -2.908786 -0.339334 5.537803 
1660.147705 1118.066162 1974.688599 -2.908789 0.113179 5.547033 
1660.147827 1189.283691 1970.324585 -2.908787 0.564938 5.519353 
1660.147949 1259.908691 1960.170288 -2.908781 1.012938 5.454942 
1660.148071 1329.470947 1944.293091 -2.908787 1.454193 5.354227 
1660.148071 1397.507690 1922.798828 -2.908782 1.885773 5.217882 
1660.148193 1463.565918 1895.830566 -2.908783 2.304804 5.046811 
1660.148315 1527.206299 1863.567505 -2.908784 2.708499 4.842154 
1660.148438 1588.005127 1826.224609 -2.908787 3.094166 4.605273 
1660.148438 1645.557861 1784.050171 -2.908786 3.459242 4.337748 
1660.148560 1699.481567 1737.325073 -2.908785 3.801297 4.041357 
1660.148560 1749.417236 1686.360229 -2.908777 4.118062 3.718066 
1660.148682 1795.032593 1631.494629 -2.908786 4.407414 3.370034 
1660.148682 1836.024170 1573.093628 -2.908786 4.667434 2.999578 
1660.148682 1872.119141 1511.545654 -2.908784 4.896399 2.609157 
1660.148804 1903.077271 1447.260498 -2.908785 5.092775 2.201376 
1660.148804 1928.692627 1380.665771 -2.908772 5.255268 1.778943 
1660.148804 1948.794556 1312.204834 -2.908776 5.382781 1.344670 
1660.148804 1963.249390 1242.333130 -2.908774 5.474475 0.901446 
1660.148804 1971.960938 1171.515747 -2.908780 5.529732 0.452232 
1689.959717 1988.702271 1100.223877 -2.232677 5.841266 -0.000000 
1689.959717 1985.745850 1027.804688 -2.232678 5.821830 -0.476121 
1689.959717 1976.896484 955.867493 -2.232680 5.763653 -0.949065 
1689.959717 1962.213135 884.890930 -2.232673 5.667116 -1.415699 
1689.959717 1941.793213 815.347351 -2.232682 5.532866 -1.872911 
1689.959595 1915.772949 747.699585 -2.232685 5.361794 -2.317654 
1689.959595 1884.325317 682.397827 -2.232671 5.155044 -2.746984 
1689.959595 1847.659546 619.876648 -2.232687 4.913984 -3.158024 
1689.959473 1806.019775 560.552063 -2.232693 4.640224 -3.548048 
1689.959473 1759.682983 504.818909 -2.232697 4.335585 -3.914466 
1689.959351 1708.957642 453.048065 -2.232688 4.002093 -4.254833 
1689.959229 1654.181274 405.584106 -2.232699 3.641968 -4.566878 
1689.959229 1595.718506 362.742828 -2.232686 3.257607 -4.848540 
1689.959229 1533.958252 324.809387 -2.232688 2.851568 -5.097932 
1689.959106 1469.311523 292.036224 -2.232687 2.426552 -5.313399 
1689.958984 1402.208618 264.641357 -2.232692 1.985386 -5.493503 
1689.958862 1333.096069 242.807205 -2.232687 1.531007 -5.637053 
1689.958862 1262.433838 226.678970 -2.232691 1.066442 -5.743086 
1689.958740 1190.692017 216.364090 -2.232690 0.594778 -5.810904 
1689.958618 1118.348267 211.931107 -2.232691 0.119156 -5.840046 
1689.958496 1045.883789 213.409607 -2.232696 -0.357258 -5.830324 
1689.958374 973.781006 220.789673 -2.232690 -0.831296 -5.781805 
1689.958374 902.519714 234.022263 -2.232697 -1.299800 -5.694809 
1689.958252 832.574097 253.019211 -2.232698 -1.759652 -5.569913 
1689.958130 764.409607 277.654236 -2.232697 -2.207800 -5.407951 
1689.958008 698.479980 307.763336 -2.232700 -2.641251 -5.210001 
1689.958008 635.223816 343.146088 -2.232693 -3.057128 -4.977380 
1689.957886 575.062195 383.567108 -2.232695 -3.452658 -4.711633 
1689.957764 518.395447 428.757324 -2.232696 -3.825209 -4.414531 
1689.957764 465.600677 478.416016 -2.232704 -4.172304 -4.088051 
1689.957642 417.029205 532.212769 -2.232702 -4.491636 -3.734366 
1689.957642 373.004303 589.789551 -2.232698 -4.781080 -3.355830 
1689.957520 333.818970 650.763184 -2.232699 -5.038701 -2.954962 
1689.957520 299.733887 714.727905 -2.232696 -5.262793 -2.534428 
1689.957520 270.975952 781.257996 -2.232697 -5.451860 -2.097029 
1689.957397 247.736511 849.910828 -2.232702 -5.604644 -1.645674 
1689.957397 230.170258 920.229431 -2.232697 -5.720135 -1.183365 
1689.957397 218.394104 991.745850 -2.232697 -5.797559 -0.713185 
1689.957397 212.486328 1063.984131 -2.232695 -5.836400 -0.238257 
1689.957397 212.486328 1136.463623 -2.232694 -5.836400 0.238257 
1689.957397 218.394104 1208.702026 -2.232697 -5.797558 0.713185 
1689.957397 230.170258 1280.218384 -2.232700 -5.720134 1.183365 
1689.957397 247.736511 1350.536987 -2.232699 -5.604645 1.645673 
1689.957520 270.975952 1419.189819 -2.232694 -5.451861 2.097031 
1689.957520 299.733887 1485.719849 -2.232694 -5.262794 2.534430 
1689.957520 333.818970 1549.684570 -2.232701 -5.038701 2.954960 
1689.957642 373.004303 1610.658203 -2.232695 -4.781080 3.355831 
1689.957642 417.029205 1668.234985 -2.232701 -4.491638 3.734365 
1689.957764 465.600677 1722.031738 -2.232698 -4.172306 4.088053 
1689.957764 518.395447 1771.690430 -2.232695 -3.825212 4.414531 
1689.957886 575.062195 1816.880737 -2.232691 -3.452658 4.711632 
1689.958008 635.223816 1857.301758 -2.232691 -3.057125 4.977380 
1689.958008 698.479980 1892.684448 -2.232701 -2.641251 5.210000 
1689.958130 764.409607 1922.793579 -2.232706 -2.207799 5.407948 
1689.958252 832.574097 1947.428589 -2.232704 -1.759653 5.569910 
1689.958374 902.519714 1966.425537 -2.232692 -1.299797 5.694812 
1689.958374 973.781006 1979.658081 -2.232699 -0.831297 5.781804 
1689.958496 1045.883789 1987.038208 -2.232690 -0.357260 5.830326 
1689.958618 1118.348267 1988.516724 -2.232688 0.119157 5.840047 
1689.958740 1190.692017 1984.083740 -2.232692 0.594779 5.810901 
1689.958862 1262.433838 1973.768799 -2.232698 1.066441 5.743085 
1689.958862 1333.096069 1957.640625 -2.232693 1.531007 5.637050 
1689.958984 1402.208618 1935.806396 -2.232698 1.985383 5.493504 
1689.959106 1469.311523 1908.411621 -2.232677 2.426554 5.313401 
1689.959229 1533.958252 1875.638428 -2.232690 2.851567 5.097932 
1689.959229 1595.718506 1837.704956 -2.232679 3.257613 4.848540 
1689.959229 1654.181274 1794.863647 -2.232698 3.641965 4.566882 
1689.959351 1708.957642 1747.399780 -2.232678 4.002095 4.254833 
1689.959473 1759.682983 1695.628906 -2.232694 4.335585 3.914467 
1689.959473 1806.019775 1639.895752 -2.232690 4.640224 3.548050 
1689.959595 1847.659546 1580.571167 -2.232683 4.913986 3.158024 
1689.959595 1884.325317 1518.049927 -2.232678 5.155045 2.746981 
1689.959595 1915.772949 1452.748169 -2.232684 5.361794 2.317656 
1689.959717 1941.793213 1385.100464 -2.232679 5.532867 1.872911 
1689.959717 1962.213135 1315.556885 -2.232672 5.667116 1.415698 
1689.959717 1976.896484 1244.580322 -2.232681 5.763651 0.949065 
1689.959717 1985.745850 1172.643066 -2.232679 5.821830 0.476121 
1709.149414 1994.576416 1100.223877 -1.358628 6.097653 -0.000001 
1709.149414 1991.600464 1027.325928 -1.358644 6.077362 -0.497017 
1709.149414 1982.692627 954.913086 -1.358649 6.016627 -0.990721 
1709.149414 1967.912109 883.467224 -1.358633 5.915858 -1.477839 
1709.149414 1947.357300 813.463867 -1.358637 5.775713 -1.955115 
1709.149292 1921.164917 745.368896 -1.358621 5.597137 -2.419387 
1709.149292 1889.509277 679.635376 -1.358639 5.381312 -2.867554 
1709.149170 1852.601196 616.700806 -1.358643 5.129672 -3.296634 
1709.149170 1810.686157 556.984009 -1.358626 4.843896 -3.703785 
1709.149048 1764.043091 500.882385 -1.358636 4.525884 -4.086281 
1709.149048 1712.982300 448.769257 -1.358634 4.177755 -4.441588 
1709.148926 1657.843872 400.991486 -1.358632 3.801824 -4.767332 
1709.148926 1598.994385 357.866943 -1.358632 3.400591 -5.061359 
1709.148804 1536.825806 319.682709 -1.358639 2.976728 -5.321694 
1709.148682 1471.751709 286.692871 -1.358637 2.533058 -5.546618 
1709.148560 1404.205200 259.116882 -1.358639 2.072527 -5.734626 
1709.148560 1334.635620 237.138397 -1.358643 1.598205 -5.884480 
1709.148438 1263.506226 220.903519 -1.358639 1.113249 -5.995166 
1709.148315 1191.290161 210.520447 -1.358650 0.620884 -6.065956 
1709.148193 1118.468018 206.058151 -1.358640 0.124384 -6.096381 
1709.148071 1045.524536 207.546417 -1.358652 -0.372940 -6.086232 
1709.148071 972.945007 214.975296 -1.358642 -0.867786 -6.035586 
1709.147949 901.212524 228.295319 -1.358656 -1.356850 -5.944767 
1709.147827 830.804443 247.417923 -1.358635 -1.836894 -5.814392 
1709.147705 762.189331 272.215790 -1.358646 -2.304706 -5.645320 
1709.147705 695.823730 302.523926 -1.358644 -2.757185 -5.438680 
1709.147583 632.149414 338.140656 -1.358648 -3.191314 -5.195848 
1709.147461 571.590088 378.828888 -1.358659 -3.604202 -4.918437 
1709.147461 514.548645 424.317902 -1.358653 -3.993110 -4.608298 
1709.147339 461.404785 474.304901 -1.358635 -4.355441 -4.267487 
1709.147217 412.512238 528.457336 -1.358641 -4.688789 -3.898278 
1709.147217 368.196259 586.414795 -1.358639 -4.990934 -3.503126 
1709.147217 328.751801 647.791565 -1.358653 -5.259863 -3.084662 
1709.147095 294.441406 712.179199 -1.358656 -5.493790 -2.645670 
1709.147095 265.493347 779.149170 -1.358649 -5.691158 -2.189074 
1709.147095 242.100235 848.255859 -1.358647 -5.850650 -1.717907 
1709.147095 224.417862 919.039368 -1.358651 -5.971210 -1.235307 
1709.147095 212.563812 991.028625 -1.358655 -6.052029 -0.744489 
1709.147095 206.617004 1063.744507 -1.358647 -6.092575 -0.248715 
1709.147095 206.617004 1136.703247 -1.358648 -6.092574 0.248715 
1709.147095 212.563812 1209.419189 -1.358652 -6.052029 0.744488 
1709.147095 224.417862 1281.408447 -1.358648 -5.971210 1.235308 
1709.147095 242.100235 1352.191895 -1.358649 -5.850651 1.717907 
1709.147095 265.493347 1421.298584 -1.358651 -5.691157 2.189074 
1709.147095 294.441406 1488.268555 -1.358657 -5.493791 2.645669 
1709.147217 328.751801 1552.656250 -1.358650 -5.259863 3.084662 
1709.147217 368.196259 1614.032959 -1.358656 -4.990934 3.503124 
1709.147217 412.512238 1671.990479 -1.358639 -4.688787 3.898279 
1709.147339 461.404785 1726.142822 -1.358636 -4.355441 4.267488 
1709.147461 514.548645 1776.129883 -1.358659 -3.993110 4.608294 
1709.147461 571.590088 1821.618896 -1.358653 -3.604204 4.918438 
1709.147583 632.149414 1862.307129 -1.358648 -3.191313 5.195849 
1709.147705 695.823730 1897.923828 -1.358648 -2.757187 5.438680 
1709.147705 762.189331 1928.232056 -1.358643 -2.304708 5.645319 
1709.147827 830.804443 1953.029907 -1.358625 -1.836889 5.814395 
1709.147949 901.212524 1972.152466 -1.358660 -1.356854 5.944766 
1709.148071 972.945007 1985.472534 -1.358647 -0.867783 6.035583 
1709.148071 1045.524536 1992.901367 -1.358652 -0.372941 6.086235 
1709.148193 1118.468018 1994.389648 -1.358628 0.124386 6.096384 
1709.148315 1191.290161 1989.927368 -1.358634 0.620883 6.065958 
1709.148438 1263.506226 1979.544312 -1.358630 1.113248 5.995165 
1709.148560 1334.635620 1963.309448 -1.358625 1.598207 5.884480 
1709.148560 1404.205200 1941.330933 -1.358646 2.072525 5.734626 
1709.148682 1471.751709 1913.754883 -1.358645 2.533058 5.546618 
1709.148804 1536.825806 1880.765137 -1.358636 2.976728 5.321693 
1709.148926 1598.994385 1842.580811 -1.358637 3.400594 5.061357 
1709.148926 1657.843872 1799.456299 -1.358641 3.801822 4.767333 
1709.149048 1712.982300 1751.678467 -1.358633 4.177759 4.441589 
1709.149048 1764.043091 1699.565430 -1.358626 4.525882 4.086282 
1709.149170 1810.686157 1643.463745 -1.358628 4.843900 3.703783 
1709.149170 1852.601196 1583.746948 -1.358645 5.129671 3.296638 
1709.149292 1889.509277 1520.812500 -1.358633 5.381310 2.867555 
1709.149292 1921.164917 1455.078979 -1.358624 5.597137 2.419385 
1709.149414 1947.357300 1386.983887 -1.358643 5.775713 1.955117 
1709.149414 1967.912109 1316.980591 -1.358633 5.915858 1.477836 
1709.149414 1982.692627 1245.534790 -1.358648 6.016627 0.990724 
1709.149414 1991.600464 1173.121826 -1.358644 6.077362 0.497017 
1721.303711 1996.317505 1100.223877 -0.389481 6.232982 -0.000001 
1721.303711 1993.335815 1027.183960 -0.389496 6.212240 -0.508046 
1721.303711 1984.410645 954.630188 -0.389499 6.150158 -1.012710 
1721.303711 1969.601318 883.045227 -0.389493 6.047149 -1.510637 
1721.303711 1949.006470 812.905640 -0.389500 5.903898 -1.998509 
1721.303589 1922.763062 744.678040 -0.389492 5.721357 -2.473083 
1721.303589 1891.045898 678.816528 -0.389491 5.500738 -2.931191 
1721.303589 1854.065918 615.759460 -0.389488 5.243517 -3.369802 
1721.303467 1812.069214 555.926453 -0.389470 4.951402 -3.785988 
1721.303467 1765.335327 499.715576 -0.389476 4.626333 -4.176976 
1721.303345 1714.175171 447.501007 -0.389499 4.270476 -4.540164 
1721.303345 1658.929321 399.630188 -0.389476 3.886199 -4.873144 
1721.303223 1599.965454 356.421783 -0.389478 3.476064 -5.173687 
1721.303223 1537.675781 318.163147 -0.389481 3.042792 -5.439803 
1721.303101 1472.474976 285.109100 -0.389510 2.589277 -5.669719 
1721.302979 1404.796997 257.479431 -0.389484 2.118523 -5.861903 
1721.302856 1335.092041 235.458130 -0.389507 1.633677 -6.015076 
1721.302856 1263.824097 219.191666 -0.389486 1.137955 -6.128223 
1721.302734 1191.467407 208.788330 -0.389485 0.634661 -6.200583 
1721.302612 1118.503540 204.317398 -0.389488 0.127145 -6.231685 
1721.302490 1045.417969 205.808517 -0.389493 -0.381220 -6.221311 
1721.302368 972.697205 213.251892 -0.389507 -0.887044 -6.169538 
1721.302246 900.825073 226.597839 -0.389492 -1.386968 -6.076705 
1721.302246 830.279968 245.757706 -0.389491 -1.877662 -5.943438 
1721.302124 761.531250 270.603821 -0.389483 -2.355858 -5.770613 
1721.302002 695.036499 300.970978 -0.389485 -2.818379 -5.559388 
1721.301880 631.238159 336.657043 -0.389499 -3.262142 -5.311166 
1721.301880 570.560852 377.424469 -0.389509 -3.684196 -5.027596 
1721.301758 513.408447 423.002014 -0.389497 -4.081733 -4.710571 
1721.301758 460.161163 473.086426 -0.389492 -4.452112 -4.362202 
1721.301636 411.173401 527.344238 -0.389499 -4.792854 -3.984797 
1721.301636 366.771149 585.414551 -0.389505 -5.101706 -3.580877 
1721.301514 327.249878 646.910767 -0.389500 -5.376601 -3.153123 
1721.301514 292.872681 711.423706 -0.389494 -5.615720 -2.704387 
1721.301392 263.868286 778.524109 -0.389506 -5.817469 -2.237658 
1721.301392 240.429642 847.765320 -0.389510 -5.980501 -1.756035 
1721.301392 222.712814 918.686646 -0.389509 -6.103733 -1.262723 
1721.301392 210.835693 990.816040 -0.389501 -6.186348 -0.761010 
1721.301392 204.877319 1063.673584 -0.389507 -6.227794 -0.254234 
1721.301392 204.877319 1136.774292 -0.389508 -6.227793 0.254234 
1721.301392 210.835693 1209.631714 -0.389502 -6.186348 0.761010 
1721.301392 222.712814 1281.761108 -0.389511 -6.103734 1.262722 
1721.301392 240.429642 1352.682495 -0.389508 -5.980499 1.756035 
1721.301392 263.868286 1421.923706 -0.389520 -5.817469 2.237658 
1721.301514 292.872681 1489.024048 -0.389504 -5.615720 2.704387 
1721.301514 327.249878 1553.536987 -0.389492 -5.376604 3.153124 
1721.301636 366.771149 1615.033325 -0.389495 -5.101701 3.580874 
1721.301636 411.173401 1673.103516 -0.389502 -4.792855 3.984799 
1721.301758 460.161163 1727.361328 -0.389522 -4.452113 4.362201 
1721.301758 513.408447 1777.445801 -0.389489 -4.081731 4.710570 
1721.301880 570.560852 1823.023315 -0.389516 -3.684197 5.027594 
1721.301880 631.238159 1863.790771 -0.389505 -3.262141 5.311165 
1721.302002 695.036499 1899.476807 -0.389501 -2.818379 5.559388 
1721.302124 761.531250 1929.843994 -0.389476 -2.355857 5.770615 
1721.302246 830.279968 1954.690063 -0.389477 -1.877661 5.943440 
1721.302246 900.825073 1973.849976 -0.389494 -1.386969 6.076702 
1721.302368 972.697205 1987.195923 -0.389478 -0.887043 6.169538 
1721.302490 1045.417969 1994.639282 -0.389484 -0.381220 6.221309 
1721.302612 1118.503540 1996.130371 -0.389506 0.127145 6.231687 
1721.302734 1191.467407 1991.659424 -0.389509 0.634661 6.200587 
1721.302856 1263.824097 1981.256104 -0.389498 1.137958 6.128226 
1721.302856 1335.092041 1964.989624 -0.389518 1.633675 6.015082 
1721.302979 1404.796997 1942.968384 -0.389495 2.118526 5.861903 
1721.303101 1472.474976 1915.338745 -0.389520 2.589272 5.669718 
1721.303223 1537.675781 1882.284668 -0.389477 3.042796 5.439801 
1721.303223 1599.965454 1844.026001 -0.389501 3.476063 5.173686 
1721.303345 1658.929321 1800.817627 -0.389482 3.886201 4.873141 
1721.303345 1714.175171 1752.946777 -0.389524 4.270473 4.540166 
1721.303467 1765.335327 1700.732178 -0.389482 4.626336 4.176975 
1721.303467 1812.069214 1644.521362 -0.389481 4.951400 3.785986 
1721.303589 1854.065918 1584.688354 -0.389497 5.243515 3.369803 
1721.303589 1891.045898 1521.631226 -0.389486 5.500741 2.931192 
1721.303589 1922.763062 1455.769775 -0.389485 5.721358 2.473083 
1721.303711 1949.006470 1387.542236 -0.389503 5.903897 1.998512 
1721.303711 1969.601318 1317.402588 -0.389489 6.047150 1.510636 
1721.303711 1984.410645 1245.817627 -0.389497 6.150158 1.012710 
1721.303711 1993.335815 1173.263794 -0.389495 6.212239 0.508047 
1729.828003 1996.170776 1100.223877 0.545158 6.227340 -0.000001 
1729.828003 1993.189575 1027.195923 0.545118 6.206626 -0.507586 
1729.827881 1984.265869 954.653992 0.545121 6.144597 -1.011796 
1729.827881 1969.458984 883.080811 0.545088 6.041687 -1.509270 
1729.827881 1948.867554 812.952698 0.545173 5.898544 -1.996699 
1729.827881 1922.628418 744.736267 0.545113 5.716183 -2.470844 
1729.827881 1890.916382 678.885559 0.545113 5.495771 -2.928547 
1729.827759 1853.942505 615.838806 0.545139 5.238773 -3.366756 
1729.827759 1811.952637 556.015564 0.545151 4.946918 -3.782561 
1729.827637 1765.226440 499.813904 0.545181 4.622139 -4.173187 
1729.827637 1714.074707 447.607880 0.545115 4.266614 -4.536057 
1729.827515 1658.837891 399.744934 0.545104 3.882689 -4.868739 
1729.827515 1599.883545 356.543549 0.545109 3.472921 -5.169014 
1729.827393 1537.604126 318.291199 0.545157 3.040037 -5.434881 
1729.827271 1472.414062 285.242493 0.545106 2.586933 -5.664588 
1729.827148 1404.747070 257.617401 0.545138 2.116605 -5.856600 
1729.827148 1335.053589 235.599701 0.545128 1.632198 -6.009636 
1729.827026 1263.797241 219.335907 0.545138 1.136922 -6.122678 
1729.826904 1191.452393 208.934311 0.545145 0.634084 -6.194978 
1729.826782 1118.500488 204.464081 0.545125 0.127028 -6.226049 
1729.826660 1045.427002 205.954971 0.545129 -0.380875 -6.215685 
1729.826660 972.718079 213.397079 0.545110 -0.886243 -6.163959 
1729.826538 900.857727 226.740891 0.545150 -1.385716 -6.071206 
1729.826416 830.324097 245.897598 0.545097 -1.875965 -5.938065 
1729.826294 761.586670 270.739685 0.545092 -2.353733 -5.765401 
1729.826294 695.102783 301.101868 0.545115 -2.815834 -5.554361 
1729.826172 631.314941 336.782043 0.545108 -3.259192 -5.306363 
1729.826050 570.647583 377.542786 0.545135 -3.680864 -5.023046 
1729.826050 513.504517 423.112915 0.545133 -4.078045 -4.706310 
1729.825928 460.265930 473.189056 0.545127 -4.448077 -4.358250 
1729.825806 411.286163 527.438049 0.545092 -4.788523 -3.981195 
1729.825806 366.891205 585.498779 0.545106 -5.097090 -3.577637 
1729.825684 327.376434 646.984985 0.545134 -5.371741 -3.150270 
1729.825684 293.004883 711.487366 0.545114 -5.610647 -2.701945 
1729.825684 264.005188 778.576782 0.545110 -5.812209 -2.235635 
1729.825684 240.570374 847.806641 0.545140 -5.975086 -1.754444 
1729.825562 222.856461 918.716370 0.545095 -6.098217 -1.261583 
1729.825562 210.981308 990.833923 0.545114 -6.180754 -0.760323 
1729.825562 205.023880 1063.679565 0.545120 -6.222158 -0.254003 
1729.825562 205.023880 1136.768311 0.545124 -6.222159 0.254005 
1729.825562 210.981308 1209.613892 0.545112 -6.180752 0.760324 
1729.825562 222.856461 1281.731445 0.545097 -6.098216 1.261582 
1729.825684 240.570374 1352.641113 0.545135 -5.975089 1.754445 
1729.825684 264.005188 1421.871094 0.545130 -5.812202 2.235634 
1729.825684 293.004883 1488.960449 0.545122 -5.610643 2.701946 
1729.825684 327.376434 1553.462769 0.545133 -5.371739 3.150270 
1729.825806 366.891205 1614.948975 0.545130 -5.097090 3.577635 
1729.825806 411.286163 1673.009766 0.545077 -4.788523 3.981192 
1729.825928 460.265930 1727.258789 0.545118 -4.448076 4.358251 
1729.826050 513.504517 1777.334839 0.545150 -4.078043 4.706312 
1729.826050 570.647583 1822.905029 0.545126 -3.680866 5.023048 
1729.826172 631.314941 1863.665771 0.545092 -3.259195 5.306365 
1729.826294 695.102783 1899.345947 0.545106 -2.815832 5.554360 
1729.826294 761.586670 1929.708130 0.545075 -2.353734 5.765407 
1729.826416 830.324097 1954.550171 0.545113 -1.875965 5.938062 
1729.826538 900.857727 1973.706909 0.545174 -1.385712 6.071203 
1729.826660 972.718079 1987.050659 0.545138 -0.886244 6.163957 
1729.826660 1045.427002 1994.492798 0.545120 -0.380876 6.215688 
1729.826782 1118.500488 1995.983765 0.545134 0.127025 6.226041 
1729.826904 1191.452393 1991.513550 0.545125 0.634083 6.194971 
1729.827026 1263.797241 1981.111938 0.545147 1.136922 6.122671 
1729.827148 1335.053589 1964.848145 0.545125 1.632194 6.009632 
1729.827148 1404.747070 1942.830444 0.545146 2.116606 5.856597 
1729.827271 1472.414062 1915.205322 0.545099 2.586931 5.664592 
1729.827393 1537.604126 1882.156616 0.545174 3.040040 5.434876 
1729.827515 1599.883545 1843.904297 0.545124 3.472915 5.169011 
1729.827515 1658.837891 1800.702881 0.545102 3.882688 4.868738 
1729.827637 1714.074707 1752.839966 0.545097 4.266612 4.536058 
1729.827637 1765.226440 1700.633911 0.545180 4.622140 4.173183 
1729.827759 1811.952637 1644.432251 0.545152 4.946918 3.782561 
1729.827759 1853.942505 1584.609009 0.545160 5.238769 3.366752 
1729.827881 1890.916382 1521.562256 0.545103 5.495770 2.928547 
1729.827881 1922.628418 1455.711548 0.545110 5.716184 2.470847 
1729.827881 1948.867554 1387.495117 0.545182 5.898548 1.996694 
1729.827881 1969.458984 1317.366943 0.545096 6.041688 1.509273 
1729.827881 1984.265869 1245.793823 0.545121 6.144598 1.011795 
1729.828003 1993.189575 1173.251831 0.545117 6.206625 0.507587 
1734.546021 1995.420288 1100.223877 1.381555 6.099972 0.000001 
1734.546021 1992.441650 1027.257080 1.381573 6.079659 -0.497205 
1734.546021 1983.525391 954.775940 1.381544 6.018915 -0.991098 
1734.546021 1968.730957 883.262695 1.381584 5.918086 -1.478397 
1734.545898 1948.156616 813.193298 1.381575 5.777913 -1.955864 
1734.545898 1921.939575 745.033997 1.381540 5.599264 -2.420306 
1734.545898 1890.254150 679.238464 1.381535 5.383353 -2.868642 
1734.545776 1853.311157 616.244507 1.381554 5.131619 -3.297895 
1734.545776 1811.356445 556.471375 1.381573 4.845732 -3.705195 
1734.545654 1764.669312 500.316803 1.381572 4.527607 -4.087840 
1734.545654 1713.560547 448.154510 1.381565 4.179340 -4.443272 
1734.545532 1658.369995 400.331604 1.381560 3.803260 -4.769143 
1734.545410 1599.465088 357.166412 1.381526 3.401885 -5.063283 
1734.545410 1537.237793 318.946198 1.381569 2.977858 -5.323716 
1734.545410 1472.102295 285.925140 1.381593 2.534011 -5.548714 
1734.545288 1404.491943 258.323181 1.381546 2.073312 -5.736814 
1734.545166 1334.856812 236.323898 1.381565 1.598807 -5.886712 
1734.545044 1263.660278 220.073761 1.381580 1.113667 -5.997438 
1734.544922 1191.375977 209.680862 1.381562 0.621115 -6.068264 
1734.544922 1118.485229 205.214386 1.381562 0.124431 -6.098698 
1734.544800 1045.472900 206.704025 1.381536 -0.373083 -6.088553 
1734.544678 972.824890 214.139877 1.381567 -0.868118 -6.037873 
1734.544556 901.024719 227.472549 1.381543 -1.357374 -5.947037 
1734.544434 830.550171 246.613144 1.381549 -1.837592 -5.816598 
1734.544434 761.870300 271.434418 1.381545 -2.305585 -5.647462 
1734.544312 695.442139 301.771179 1.381552 -2.758234 -5.440746 
1734.544189 631.707703 337.421478 1.381561 -3.192525 -5.197819 
1734.544189 571.091187 378.148132 1.381596 -3.605571 -4.920296 
1734.544067 513.995972 423.680054 1.381549 -3.994629 -4.610047 
1734.543945 460.801971 473.714294 1.381560 -4.357101 -4.269109 
1734.543945 411.863220 527.917786 1.381532 -4.690573 -3.899761 
1734.543823 367.505432 585.929932 1.381550 -4.992836 -3.504456 
1734.543823 328.023804 647.364624 1.381549 -5.261869 -3.085836 
1734.543701 293.680969 711.812988 1.381530 -5.495884 -2.646678 
1734.543701 264.705597 778.846191 1.381549 -5.693325 -2.189906 
1734.543701 241.290451 848.018127 1.381558 -5.852881 -1.718560 
1734.543701 223.591324 918.868408 1.381558 -5.973476 -1.235775 
1734.543701 211.726135 990.925598 1.381523 -6.054338 -0.744771 
1734.543579 205.773712 1063.710083 1.381543 -6.094895 -0.248809 
1734.543579 205.773712 1136.737671 1.381546 -6.094895 0.248808 
1734.543701 211.726135 1209.522217 1.381522 -6.054343 0.744769 
1734.543701 223.591324 1281.579346 1.381566 -5.973475 1.235775 
1734.543701 241.290451 1352.429688 1.381549 -5.852884 1.718561 
1734.543701 264.705597 1421.601562 1.381575 -5.693320 2.189904 
1734.543701 293.680969 1488.634766 1.381548 -5.495884 2.646676 
1734.543823 328.023804 1553.083130 1.381549 -5.261868 3.085835 
1734.543823 367.505432 1614.517822 1.381550 -4.992838 3.504457 
1734.543945 411.863220 1672.530029 1.381534 -4.690578 3.899760 
1734.543945 460.801971 1726.733521 1.381575 -4.357098 4.269111 
1734.544067 513.995972 1776.767700 1.381524 -3.994642 4.610056 
1734.544189 571.091187 1822.299683 1.381622 -3.605566 4.920293 
1734.544189 631.707703 1863.026367 1.381588 -3.192519 5.197808 
1734.544312 695.442139 1898.676636 1.381567 -2.758233 5.440743 
1734.544434 761.870300 1929.013428 1.381588 -2.305575 5.647449 
1734.544434 830.550171 1953.834595 1.381533 -1.837595 5.816607 
1734.544556 901.024719 1972.975220 1.381537 -1.357374 5.947039 
1734.544678 972.824890 1986.307861 1.381525 -0.868119 6.037888 
1734.544800 1045.472900 1993.743774 1.381533 -0.373087 6.088550 
1734.544922 1118.485229 1995.233398 1.381617 0.124431 6.098686 
1734.544922 1191.375977 1990.766968 1.381575 0.621113 6.068264 
1734.545044 1263.660278 1980.374023 1.381619 1.113670 5.997434 
1734.545166 1334.856812 1964.123901 1.381578 1.598807 5.886716 
1734.545288 1404.491943 1942.124634 1.381593 2.073307 5.736803 
1734.545410 1472.102295 1914.522705 1.381592 2.534013 5.548712 
1734.545410 1537.237793 1881.501587 1.381573 2.977861 5.323716 
1734.545410 1599.465088 1843.281372 1.381528 3.401884 5.063286 
1734.545532 1658.369995 1800.116211 1.381586 3.803256 4.769136 
1734.545654 1713.560547 1752.293335 1.381581 4.179337 4.443269 
1734.545654 1764.669312 1700.130981 1.381586 4.527607 4.087837 
1734.545776 1811.356445 1643.976440 1.381592 4.845728 3.705191 
1734.545776 1853.311157 1584.203247 1.381575 5.131618 3.297894 
1734.545898 1890.254150 1521.209351 1.381534 5.383353 2.868644 
1734.545898 1921.939575 1455.413818 1.381544 5.599263 2.420306 
1734.545898 1948.156616 1387.254517 1.381583 5.777912 1.955863 
1734.546021 1968.730957 1317.185059 1.381582 5.918087 1.478395 
1734.546021 1983.525391 1245.671875 1.381551 6.018913 0.991102 
1734.546021 1992.441650 1173.190674 1.381570 6.079662 0.497201 
1739.478882 1993.956543 1100.223877 2.225758 5.838868 0.000002 
1739.478882 1990.982666 1027.376465 2.225822 5.819423 -0.475920 
1739.478882 1982.081055 955.013794 2.225772 5.761285 -0.948675 
1739.478882 1967.310669 883.617432 2.225837 5.664771 -1.415122 
1739.478882 1946.770142 813.662598 2.225776 5.530581 -1.872138 
1739.478760 1920.595947 745.614807 2.225801 5.359580 -2.316701 
1739.478760 1888.962280 679.926819 2.225805 5.152914 -2.745850 
1739.478760 1852.079712 617.035889 2.225840 4.911935 -3.156716 
1739.478638 1810.193604 557.360474 2.225789 4.638314 -3.546595 
1739.478638 1763.582886 501.297760 2.225776 4.333800 -3.912853 
1739.478516 1712.557617 449.220764 2.225844 4.000427 -4.253065 
1739.478394 1657.457275 401.476074 2.225828 3.640460 -4.564998 
1739.478394 1598.648682 358.381439 2.225821 3.256253 -4.846535 
1739.478271 1536.523193 320.223694 2.225764 2.850396 -5.095845 
1739.478149 1471.494141 287.256653 2.225852 2.425536 -5.311195 
1739.478149 1403.994507 259.699829 2.225826 1.984559 -5.491224 
1739.478027 1334.473145 237.736526 2.225825 1.530365 -5.634718 
1739.477905 1263.392944 221.512970 2.225812 1.065992 -5.740717 
1739.477783 1191.226929 211.137054 2.225775 0.594528 -5.808518 
1739.477661 1118.455322 206.677856 2.225805 0.119102 -5.837636 
1739.477661 1045.562378 208.165054 2.225821 -0.357117 -5.827908 
1739.477539 973.033203 215.588806 2.225844 -0.830957 -5.779404 
1739.477417 901.350403 228.899597 2.225770 -1.299270 -5.692469 
1739.477295 830.991150 248.008972 2.225806 -1.758937 -5.567620 
1739.477173 762.423584 272.789642 2.225837 -2.206891 -5.405712 
1739.477173 696.104004 303.076813 2.225836 -2.640162 -5.207838 
1739.477051 632.473816 338.668823 2.225801 -3.055872 -4.975327 
1739.476929 571.956421 379.328857 2.225793 -3.451244 -4.709699 
1739.476929 514.954529 424.786316 2.225815 -3.823632 -4.412702 
1739.476807 461.847534 474.738708 2.225782 -4.170592 -4.086370 
1739.476807 412.988831 528.853577 2.225817 -4.489785 -3.732822 
1739.476685 368.703552 586.770874 2.225824 -4.779102 -3.354438 
1739.476685 329.286469 648.105103 2.225781 -5.036633 -2.953748 
1739.476562 294.999786 712.448120 2.225782 -5.260633 -2.533385 
1739.476562 266.071808 779.371704 2.225782 -5.449623 -2.096167 
