1923.615967 387.869537 857.157349 2.042614 -5.670077 -1.664883 
1923.615967 374.179779 911.958130 2.042608 -5.786915 -1.197183 
1923.615967 365.002319 967.692444 2.042608 -5.865241 -0.721511 
1923.615967 360.398285 1023.989380 2.042610 -5.904534 -0.241037 
1923.615967 360.398285 1080.474243 2.042609 -5.904534 0.241038 
1923.615967 365.002319 1136.771118 2.042609 -5.865241 0.721511 
1923.615967 374.179779 1192.505493 2.042609 -5.786915 1.197181 
1923.615967 387.869537 1247.306274 2.042615 -5.670077 1.664884 
1923.616089 405.980530 1300.808838 2.042618 -5.515504 2.121508 
1923.616089 428.392242 1352.657227 2.042618 -5.324230 2.564013 
1923.616089 454.955444 1402.506348 2.042611 -5.097527 2.989455 
1923.616089 485.493469 1450.024414 2.042614 -4.836895 3.395006 
1923.616211 519.803040 1494.895264 2.042613 -4.544078 3.777958 
1923.616211 557.655884 1536.820312 2.042614 -4.221018 4.135774 
1923.616333 598.799988 1575.520386 2.042616 -3.869869 4.466063 
1923.616333 642.961609 1610.738159 2.042614 -3.492968 4.766632 
1923.616455 689.846863 1642.239136 2.042621 -3.092818 5.035478 
1923.616455 739.143738 1669.813721 2.042621 -2.672087 5.270819 
1923.616577 790.524231 1693.278320 2.042610 -2.233578 5.471084 
1923.616577 843.646240 1712.476929 2.042614 -1.780203 5.634936 
1923.616699 898.156433 1727.281738 2.042611 -1.314981 5.761288 
1923.616821 953.691956 1737.594116 2.042621 -0.841004 5.849298 
1923.616821 1009.883179 1743.345581 2.042630 -0.361433 5.898382 
1923.616943 1066.356323 1744.497803 2.042624 0.120538 5.908218 
1923.617065 1122.735474 1741.043091 2.042625 0.601720 5.878732 
1923.617065 1178.645386 1733.004395 2.042618 1.078884 5.810131 
1923.617065 1233.713989 1720.435425 2.042627 1.548873 5.702855 
1923.617188 1287.574951 1703.419556 2.042622 2.008555 5.557633 
1923.617188 1339.869751 1682.070190 2.042626 2.454872 5.375422 
1923.617310 1390.250244 1656.529297 2.042624 2.884851 5.157443 
1923.617432 1438.381348 1626.966919 2.042623 3.295634 4.905138 
1923.617432 1483.942749 1593.579712 2.042615 3.684478 4.620200 
1923.617554 1526.631226 1556.590088 2.042629 4.048807 4.304498 
1923.617554 1566.162476 1516.243896 2.042624 4.386194 3.960166 
1923.617554 1602.273804 1472.809937 2.042633 4.694385 3.589468 
1923.617676 1634.724609 1426.576904 2.042620 4.971344 3.194890 
1923.617676 1663.298950 1377.852783 2.042623 5.215216 2.779048 
1923.617676 1687.806885 1326.961670 2.042623 5.424378 2.344718 
1923.617798 1708.085083 1274.242310 2.042638 5.597443 1.894768 
1923.617798 1723.998657 1220.045532 2.042632 5.733261 1.432222 
1923.617798 1735.441772 1164.731934 2.042621 5.830927 0.960148 
1923.617798 1742.338257 1108.669678 2.042637 5.889781 0.481673 
1948.010376 1734.236572 1052.231812 2.877303 5.548228 0.000001 
1948.010376 1731.967163 996.642090 2.877305 5.529768 -0.452233 
1948.010376 1725.174438 941.422363 2.877307 5.474503 -0.901453 
1948.010376 1713.903198 886.940002 2.877310 5.382811 -1.344681 
1948.010254 1698.228760 833.557678 2.877307 5.255300 -1.778953 
1948.010254 1678.255371 781.630554 2.877302 5.092810 -2.201391 
1948.010254 1654.115723 731.504272 2.877300 4.896434 -2.609178 
1948.010254 1625.970825 683.512390 2.877312 4.667459 -2.999599 
1948.010132 1594.007568 637.974182 2.877313 4.407434 -3.370062 
1948.010132 1558.439087 595.192871 2.877297 4.118089 -3.718093 
1948.010010 1519.501831 555.453064 2.877316 3.801315 -4.041385 
1948.010010 1477.454956 519.019226 2.877304 3.459262 -4.337780 
1948.010010 1432.578247 486.133881 2.877304 3.094181 -4.605309 
1948.009888 1385.170410 457.015747 2.877303 2.708510 -4.842192 
1948.009766 1335.546997 431.858704 2.877306 2.304813 -5.046847 
1948.009766 1284.038086 410.830200 2.877309 1.885777 -5.217917 
1948.009644 1230.986572 394.070038 2.877301 1.454198 -5.354266 
1948.009644 1176.745605 381.689911 2.877309 1.012937 -5.454977 
1948.009521 1121.675903 373.772034 2.877306 0.564933 -5.519392 
1948.009399 1066.144043 370.369263 2.877307 0.113170 -5.547074 
1948.009399 1010.519592 371.504181 2.877307 -0.339342 -5.537841 
1948.009277 955.172791 377.169189 2.877302 -0.789599 -5.491757 
1948.009277 900.471863 387.326660 2.877307 -1.234602 -5.409120 
1948.009155 846.780884 401.908936 2.877301 -1.671386 -5.290494 
1948.009033 794.457153 420.818970 2.877298 -2.097048 -5.136659 
1948.009033 743.848877 443.931030 2.877305 -2.508758 -4.948633 
1948.008911 695.292847 471.091217 2.877303 -2.903770 -4.727683 
1948.008911 649.112183 502.118774 2.877298 -3.279457 -4.475271 
1948.008789 605.614197 536.807251 2.877301 -3.633322 -4.193071 
1948.008789 565.088379 574.925781 2.877292 -3.963006 -3.882974 
1948.008667 527.804443 616.220703 2.877300 -4.266319 -3.547026 
1948.008667 494.010498 660.417236 2.877296 -4.541237 -3.187485 
1948.008667 463.931396 707.221191 2.877298 -4.785936 -2.806722 
1948.008545 437.767395 756.321167 2.877299 -4.998787 -2.407284 
1948.008545 415.692505 807.390381 2.877298 -5.178369 -1.991831 
1948.008545 397.853668 860.088928 2.877291 -5.323492 -1.563121 
1948.008545 384.369598 914.066223 2.877297 -5.433185 -1.124002 
1948.008545 375.330078 968.962952 2.877296 -5.506723 -0.677407 
1948.008545 370.795258 1024.413818 2.877295 -5.543617 -0.226304 
1948.008545 370.795258 1080.049805 2.877295 -5.543617 0.226304 
1948.008545 375.330078 1135.500610 2.877295 -5.506724 0.677407 
1948.008545 384.369598 1190.397339 2.877298 -5.433184 1.124003 
1948.008545 397.853668 1244.374634 2.877295 -5.323492 1.563118 
1948.008545 415.692505 1297.073242 2.877299 -5.178368 1.991832 
1948.008545 437.767395 1348.142456 2.877301 -4.998785 2.407285 
1948.008667 463.931396 1397.242432 2.877297 -4.785936 2.806721 
1948.008667 494.010498 1444.046387 2.877297 -4.541236 3.187484 
1948.008667 527.804443 1488.242920 2.877296 -4.266318 3.547028 
1948.008789 565.088379 1529.537842 2.877296 -3.963006 3.882970 
1948.008789 605.614197 1567.656372 2.877297 -3.633321 4.193072 
1948.008911 649.112183 1602.344849 2.877302 -3.279454 4.475268 
1948.008911 695.292847 1633.372314 2.877303 -2.903771 4.727685 
1948.009033 743.848877 1660.532593 2.877306 -2.508757 4.948632 
1948.009033 794.457153 1683.644653 2.877301 -2.097049 5.136656 
1948.009155 846.780884 1702.554688 2.877308 -1.671385 5.290489 
1948.009277 900.471863 1717.136963 2.877312 -1.234599 5.409117 
1948.009277 955.172791 1727.294434 2.877298 -0.789598 5.491758 
1948.009399 1010.519592 1732.959351 2.877303 -0.339342 5.537844 
1948.009399 1066.144043 1734.094360 2.877313 0.113171 5.547069 
1948.009521 1121.675903 1730.691528 2.877308 0.564934 5.519390 
1948.009644 1176.745605 1722.773682 2.877303 1.012935 5.454979 
1948.009644 1230.986572 1710.393555 2.877301 1.454195 5.354268 
1948.009766 1284.038086 1693.633423 2.877312 1.885779 5.217913 
1948.009766 1335.546997 1672.604858 2.877311 2.304812 5.046845 
1948.009888 1385.170410 1647.447876 2.877300 2.708508 4.842193 
1948.010010 1432.578247 1618.329712 2.877302 3.094183 4.605309 
1948.010010 1477.454956 1585.444336 2.877298 3.459262 4.337785 
1948.010010 1519.501831 1549.010498 2.877315 3.801320 4.041379 
1948.010132 1558.439087 1509.270752 2.877298 4.118082 3.718099 
1948.010132 1594.007568 1466.489380 2.877316 4.407437 3.370057 
1948.010254 1625.970825 1420.951172 2.877311 4.667459 2.999598 
1948.010254 1654.115723 1372.959351 2.877301 4.896431 2.609180 
1948.010254 1678.255371 1322.833008 2.877302 5.092811 2.201391 
1948.010254 1698.228760 1270.905884 2.877306 5.255301 1.778952 
1948.010376 1713.903198 1217.523560 2.877307 5.382812 1.344681 
1948.010376 1725.174438 1163.041260 2.877308 5.474503 0.901454 
1948.010376 1731.967163 1107.821533 2.877307 5.529768 0.452232 
1964.657593 1723.905273 1052.231812 3.679806 5.054718 -0.000002 
1964.657593 1721.670288 997.484192 3.679800 5.037904 -0.412006 
1964.657593 1714.980347 943.100952 3.679807 4.987555 -0.821273 
1964.657471 1703.880005 889.443909 3.679792 4.904028 -1.225073 
1964.657471 1688.442993 836.870239 3.679790 4.787857 -1.620719 
1964.657471 1668.772095 785.729736 3.679801 4.639812 -2.005582 
1964.657471 1644.998169 736.362732 3.679796 4.460903 -2.377098 
1964.657349 1617.279541 689.097839 3.679810 4.252294 -2.732795 
1964.657349 1585.800537 644.249573 3.679789 4.015417 -3.070304 
1964.657349 1550.770874 602.116272 3.679800 3.751784 -3.387378 
1964.657227 1512.423340 562.978455 3.679798 3.463202 -3.681917 
1964.657227 1471.013428 527.096558 3.679802 3.151565 -3.951943 
1964.657104 1426.816650 494.709320 3.679802 2.818958 -4.195675 
1964.657104 1380.126953 466.032318 3.679795 2.467594 -4.411490 
1964.656982 1331.255249 441.256409 3.679793 2.099806 -4.597947 
1964.656982 1280.526611 420.546417 3.679786 1.718047 -4.753806 
1964.656860 1228.278809 404.040161 3.679792 1.324848 -4.878020 
1964.656738 1174.859375 391.847504 3.679795 0.922838 -4.969774 
1964.656738 1120.623901 384.049591 3.679795 0.514682 -5.028455 
1964.656616 1065.933228 380.698395 3.679792 0.103103 -5.053679 
1964.656616 1011.151428 381.816101 3.679784 -0.309158 -5.045273 
1964.656494 956.643066 387.395264 3.679790 -0.719371 -5.003279 
1964.656372 902.770752 397.398895 3.679796 -1.124789 -4.927995 
1964.656372 849.893127 411.760284 3.679788 -1.522721 -4.819922 
1964.656250 798.362000 430.383850 3.679790 -1.910524 -4.679765 
1964.656250 748.520386 453.145813 3.679785 -2.285614 -4.508472 
1964.656128 700.699890 479.894531 3.679782 -2.645491 -4.307175 
1964.656128 655.218750 510.452087 3.679782 -2.987762 -4.077209 
1964.656006 612.379700 544.615112 3.679786 -3.310151 -3.820111 
1964.656006 572.467773 582.156189 3.679786 -3.610509 -3.537592 
1964.655884 535.748657 622.825562 3.679786 -3.886845 -3.231530 
1964.655884 502.466614 666.352600 3.679784 -4.137308 -2.903968 
1964.655884 472.843170 712.447571 3.679789 -4.360241 -2.557069 
1964.655762 447.075500 760.803711 3.679783 -4.554161 -2.193165 
1964.655762 425.334991 811.099304 3.679782 -4.717769 -1.814666 
1964.655762 407.766388 862.999573 3.679785 -4.849981 -1.424083 
1964.655762 394.486664 916.159180 3.679787 -4.949921 -1.024026 
1964.655762 385.584045 970.224304 3.679785 -5.016919 -0.617155 
1964.655762 381.117889 1024.835205 3.679785 -5.050528 -0.206175 
1964.655762 381.117889 1079.628418 3.679786 -5.050527 0.206175 
1964.655762 385.584045 1134.239258 3.679786 -5.016918 0.617155 
1964.655762 394.486664 1188.304443 3.679785 -4.949922 1.024027 
1964.655762 407.766388 1241.463989 3.679785 -4.849980 1.424083 
1964.655762 425.334991 1293.364258 3.679783 -4.717770 1.814664 
1964.655762 447.075500 1343.659790 3.679787 -4.554161 2.193163 
1964.655884 472.843170 1392.015991 3.679790 -4.360242 2.557070 
1964.655884 502.466614 1438.110962 3.679789 -4.137308 2.903965 
1964.655884 535.748657 1481.638062 3.679790 -3.886842 3.231529 
1964.656006 572.467773 1522.307373 3.679791 -3.610507 3.537590 
1964.656006 612.379700 1559.848511 3.679787 -3.310151 3.820111 
1964.656128 655.218750 1594.011475 3.679783 -2.987763 4.077211 
1964.656128 700.699890 1624.569092 3.679779 -2.645492 4.307175 
1964.656250 748.520386 1651.317749 3.679787 -2.285614 4.508472 
1964.656250 798.362000 1674.079712 3.679800 -1.910518 4.679761 
1964.656372 849.893127 1692.703247 3.679794 -1.522724 4.819919 
1964.656372 902.770752 1707.064697 3.679800 -1.124788 4.927992 
1964.656494 956.643066 1717.068359 3.679797 -0.719367 5.003273 
1964.656616 1011.151428 1722.647461 3.679787 -0.309160 5.045270 
1964.656616 1065.933228 1723.765137 3.679796 0.103105 5.053679 
1964.656738 1120.623901 1720.413940 3.679795 0.514681 5.028456 
1964.656738 1174.859375 1712.616089 3.679796 0.922836 4.969774 
1964.656860 1228.278809 1700.423462 3.679790 1.324849 4.878020 
1964.656982 1280.526611 1683.917114 3.679796 1.718047 4.753799 
1964.656982 1331.255249 1663.207153 3.679795 2.099804 4.597946 
1964.657104 1380.126953 1638.431274 3.679799 2.467591 4.411489 
1964.657104 1426.816650 1609.754272 3.679807 2.818957 4.195671 
1964.657227 1471.013428 1577.367065 3.679804 3.151564 3.951941 
1964.657227 1512.423340 1541.485107 3.679801 3.463199 3.681916 
1964.657349 1550.770874 1502.347290 3.679805 3.751784 3.387373 
1964.657349 1585.800537 1460.213989 3.679794 4.015410 3.070306 
1964.657349 1617.279541 1415.365723 3.679805 4.252300 2.732792 
1964.657471 1644.998169 1368.100830 3.679798 4.460901 2.377101 
1964.657471 1668.772095 1318.733887 3.679801 4.639812 2.005579 
1964.657471 1688.442993 1267.593384 3.679790 4.787855 1.620721 
1964.657471 1703.880005 1215.019653 3.679793 4.904028 1.225076 
1964.657593 1714.980347 1161.362671 3.679806 4.987556 0.821269 
1964.657593 1721.670288 1106.979370 3.679799 5.037905 0.412009 
1978.556274 1712.069824 1052.231812 4.415822 4.424402 -0.000001 
1978.556274 1709.874268 998.448914 4.415814 4.409687 -0.360629 
1978.556274 1703.302246 945.023926 4.415813 4.365619 -0.718859 
1978.556274 1692.397461 892.312378 4.415813 4.292497 -1.072307 
1978.556274 1677.232422 840.665100 4.415812 4.190814 -1.418619 
1978.556274 1657.908081 790.425720 4.415813 4.061239 -1.755490 
1978.556274 1634.553101 741.928650 4.415824 3.904622 -2.080677 
1978.556152 1607.322876 695.496582 4.415815 3.722048 -2.392018 
1978.556152 1576.398682 651.438477 4.415803 3.514699 -2.687442 
1978.556030 1541.986206 610.047668 4.415816 3.283941 -2.964982 
1978.556030 1504.314453 571.599487 4.415806 3.031348 -3.222789 
1978.556030 1463.634155 536.349915 4.415808 2.758574 -3.459151 
1978.555908 1420.216064 504.533356 4.415810 2.467442 -3.672489 
1978.555908 1374.349121 476.361633 4.415807 2.159890 -3.861388 
1978.555786 1326.338623 452.022247 4.415804 1.837966 -4.024592 
1978.555786 1276.503906 431.677155 4.415802 1.503807 -4.161013 
1978.555664 1225.176636 415.461792 4.415805 1.159637 -4.269744 
1978.555542 1172.698486 403.483978 4.415798 0.807763 -4.350064 
1978.555542 1119.418701 395.823547 4.415808 0.450499 -4.401421 
1978.555420 1065.691772 392.531342 4.415794 0.090250 -4.423511 
1978.555420 1011.875305 393.629303 4.415801 -0.270611 -4.416136 
1978.555298 958.327393 399.110260 4.415798 -0.629671 -4.379392 
1978.555176 905.404358 408.937561 4.415794 -0.984533 -4.313499 
1978.555176 853.458496 423.045868 4.415802 -1.332844 -4.218887 
1978.555054 802.835388 441.341339 4.415799 -1.672289 -4.096217 
1978.555054 753.871948 463.702148 4.415802 -2.000603 -3.946272 
1978.554932 706.894104 489.979553 4.415792 -2.315608 -3.770087 
1978.554932 662.214417 519.998657 4.415802 -2.615197 -3.568785 
1978.554810 620.130249 553.559692 4.415793 -2.897388 -3.343760 
1978.554810 580.921631 590.439270 4.415804 -3.160288 -3.096457 
1978.554688 544.849487 630.392029 4.415792 -3.402171 -2.828575 
1978.554688 512.153931 673.152039 4.415792 -3.621404 -2.541855 
1978.554688 483.052490 718.434814 4.415804 -3.816530 -2.238205 
1978.554565 457.738831 765.938904 4.415795 -3.986274 -1.919686 
1978.554565 436.381409 815.348267 4.415792 -4.129484 -1.588385 
1978.554565 419.122406 866.333984 4.415793 -4.245211 -1.246506 
1978.554565 406.076599 918.556885 4.415791 -4.332687 -0.896335 
1978.554565 397.330872 971.669373 4.415802 -4.391317 -0.540194 
1978.554565 392.943451 1025.317993 4.415802 -4.420739 -0.180465 
1978.554565 392.943451 1079.145630 4.415801 -4.420740 0.180465 
1978.554565 397.330872 1132.794189 4.415803 -4.391316 0.540196 
1978.554565 406.076599 1185.906738 4.415793 -4.332685 0.896333 
1978.554565 419.122406 1238.129517 4.415795 -4.245209 1.246506 
1978.554565 436.381409 1289.115356 4.415790 -4.129486 1.588384 
1978.554565 457.738831 1338.524658 4.415792 -3.986276 1.919685 
1978.554688 483.052490 1386.028809 4.415802 -3.816530 2.238211 
1978.554688 512.153931 1431.311523 4.415791 -3.621407 2.541854 
1978.554688 544.849487 1474.071533 4.415794 -3.402171 2.828572 
1978.554810 580.921631 1514.024292 4.415804 -3.160285 3.096460 
1978.554810 620.130249 1550.903931 4.415792 -2.897393 3.343756 
1978.554932 662.214417 1584.464966 4.415801 -2.615192 3.568789 
1978.554932 706.894104 1614.484009 4.415795 -2.315611 3.770083 
1978.555054 753.871948 1640.761475 4.415800 -2.000599 3.946274 
1978.555054 802.835388 1663.122192 4.415798 -1.672291 4.096220 
1978.555176 853.458496 1681.417725 4.415799 -1.332843 4.218889 
1978.555176 905.404358 1695.526001 4.415800 -0.984533 4.313493 
1978.555298 958.327393 1705.353271 4.415805 -0.629669 4.379386 
1978.555420 1011.875305 1710.834229 4.415800 -0.270610 4.416137 
1978.555420 1065.691772 1711.932251 4.415791 0.090244 4.423511 
1978.555542 1119.418701 1708.640015 4.415802 0.450503 4.401425 
1978.555542 1172.698486 1700.979614 4.415795 0.807757 4.350068 
1978.555664 1225.176636 1689.001831 4.415804 1.159642 4.269742 
1978.555786 1276.503906 1672.786377 4.415801 1.503809 4.161015 
1978.555786 1326.338623 1652.441284 4.415803 1.837965 4.024596 
1978.555908 1374.349121 1628.101929 4.415812 2.159890 3.861385 
1978.555908 1420.216064 1599.930176 4.415815 2.467442 3.672487 
1978.556030 1463.634155 1568.113647 4.415807 2.758575 3.459152 
1978.556030 1504.314453 1532.864014 4.415805 3.031351 3.222792 
1978.556030 1541.986206 1494.415894 4.415815 3.283945 2.964978 
1978.556152 1576.398682 1453.025024 4.415806 3.514696 2.687445 
1978.556152 1607.322876 1408.967041 4.415814 3.722046 2.392019 
1978.556274 1634.553101 1362.534912 4.415825 3.904623 2.080672 
1978.556274 1657.908081 1314.037842 4.415816 4.061236 1.755491 
1978.556274 1677.232422 1263.798462 4.415813 4.190813 1.418619 
1978.556274 1692.397461 1212.151245 4.415812 4.292499 1.072308 
1978.556274 1703.302246 1159.439697 4.415815 4.365617 0.718859 
1978.556274 1709.874268 1106.014648 4.415815 4.409686 0.360630 
1990.392578 1698.141724 1052.231812 5.071294 3.658147 -0.000000 
1990.392578 1695.992554 999.584167 5.071292 3.645977 -0.298172 
1990.392578 1689.559204 947.286865 5.071297 3.609535 -0.594362 
1990.392578 1678.884521 895.687988 5.071310 3.549059 -0.886592 
1990.392578 1664.039673 845.130859 5.071305 3.464988 -1.172920 
1990.392578 1645.123291 795.951965 5.071305 3.357851 -1.451452 
1990.392456 1622.261230 748.478577 5.071306 3.228376 -1.720324 
1990.392456 1595.605835 703.026672 5.071293 3.077432 -1.977742 
1990.392456 1565.334351 659.898560 5.071305 2.905966 -2.221995 
1990.392334 1531.648315 619.381409 5.071296 2.715195 -2.451472 
1990.392334 1494.771729 581.744873 5.071304 2.506335 -2.664621 
1990.392334 1454.950195 547.239258 5.071299 2.280805 -2.860047 
1990.392212 1412.448608 516.094299 5.071290 2.040106 -3.036449 
1990.392212 1367.549805 488.517273 5.071300 1.785807 -3.192622 
1990.392090 1320.552612 464.691650 5.071297 1.519643 -3.327565 
1990.392090 1271.769897 444.776062 5.071306 1.243350 -3.440344 
1990.391968 1221.526123 428.902924 5.071301 0.958796 -3.530246 
1990.391968 1170.155640 417.177979 5.071294 0.667861 -3.596657 
1990.391846 1118.000488 409.679169 5.071300 0.372475 -3.639121 
1990.391846 1065.407715 406.456482 5.071291 0.074619 -3.657383 
1990.391724 1012.727173 407.531311 5.071303 -0.223747 -3.651282 
1990.391724 960.309509 412.896515 5.071289 -0.520615 -3.620910 
1990.391602 908.503662 422.516418 5.071292 -0.814023 -3.566424 
1990.391479 857.654236 436.326935 5.071293 -1.102008 -3.488211 
1990.391479 808.099731 454.236206 5.071291 -1.382662 -3.386777 
1990.391357 760.169861 476.125061 5.071305 -1.654110 -3.262795 
1990.391357 714.183594 501.847748 5.071292 -1.914556 -3.117126 
1990.391235 670.447021 531.233215 5.071303 -2.162259 -2.950686 
1990.391235 629.251160 564.085815 5.071292 -2.395576 -2.764638 
1990.391113 590.870178 600.186951 5.071294 -2.612953 -2.560178 
1990.391113 555.559448 639.296326 5.071288 -2.812935 -2.338683 
1990.391113 523.554016 681.153809 5.071291 -2.994199 -2.101615 
1990.390991 495.066895 725.480713 5.071290 -3.155544 -1.850571 
1990.390991 470.287567 771.982056 5.071289 -3.295877 -1.587209 
1990.390991 449.380920 820.348450 5.071287 -3.414282 -1.313286 
1990.390991 432.486237 870.257996 5.071291 -3.509962 -1.030616 
1990.390991 419.715881 921.378540 5.071293 -3.582289 -0.741091 
1990.390869 411.154755 973.369873 5.071294 -3.630779 -0.446636 
1990.390869 406.859863 1025.885986 5.071289 -3.655106 -0.149212 
1990.390869 406.859863 1078.577515 5.071290 -3.655105 0.149211 
1990.390869 411.154755 1131.093628 5.071294 -3.630780 0.446636 
1990.390991 419.715881 1183.085083 5.071290 -3.582293 0.741091 
1990.390991 432.486237 1234.205566 5.071289 -3.509964 1.030618 
1990.390991 449.380920 1284.115112 5.071289 -3.414280 1.313285 
1990.390991 470.287567 1332.481445 5.071291 -3.295875 1.587208 
1990.390991 495.066895 1378.982910 5.071291 -3.155544 1.850569 
1990.391113 523.554016 1423.309814 5.071287 -2.994201 2.101618 
1990.391113 555.559448 1465.167236 5.071289 -2.812934 2.338682 
1990.391113 590.870178 1504.276611 5.071293 -2.612953 2.560178 
1990.391235 629.251160 1540.377808 5.071292 -2.395578 2.764634 
1990.391235 670.447021 1573.230347 5.071304 -2.162253 2.950689 
1990.391357 714.183594 1602.615845 5.071292 -1.914561 3.117122 
1990.391357 760.169861 1628.338501 5.071307 -1.654103 3.262796 
1990.391479 808.099731 1650.227417 5.071289 -1.382665 3.386777 
1990.391479 857.654236 1668.136597 5.071296 -1.102006 3.488210 
1990.391602 908.503662 1681.947144 5.071289 -0.814023 3.566428 
1990.391724 960.309509 1691.567017 5.071285 -0.520620 3.620915 
1990.391724 1012.727173 1696.932251 5.071301 -0.223741 3.651285 
1990.391846 1065.407715 1698.007080 5.071291 0.074613 3.657382 
1990.391846 1118.000488 1694.784424 5.071297 0.372477 3.639126 
1990.391968 1170.155640 1687.285645 5.071295 0.667858 3.596656 
1990.391968 1221.526123 1675.560669 5.071304 0.958798 3.530242 
1990.392090 1271.769897 1659.687500 5.071303 1.243354 3.440346 
1990.392090 1320.552612 1639.771973 5.071290 1.519642 3.327573 
1990.392212 1367.549805 1615.946289 5.071298 1.785814 3.192622 
1990.392212 1412.448608 1588.369263 5.071287 2.040103 3.036456 
1990.392334 1454.950195 1557.224365 5.071297 2.280807 2.860047 
1990.392334 1494.771729 1522.718750 5.071301 2.506338 2.664620 
1990.392334 1531.648315 1485.082153 5.071294 2.715195 2.451477 
1990.392456 1565.334351 1444.564941 5.071306 2.905969 2.221990 
1990.392456 1595.605835 1401.436890 5.071297 3.077424 1.977745 
1990.392456 1622.261230 1355.984985 5.071304 3.228380 1.720322 
1990.392578 1645.123291 1308.511597 5.071302 3.357855 1.451453 
1990.392578 1664.039673 1259.332642 5.071307 3.464986 1.172920 
1990.392578 1678.884521 1208.775635 5.071312 3.549057 0.886588 
1990.392578 1689.559204 1157.176758 5.071297 3.609533 0.594364 
1990.392578 1695.992554 1104.879395 5.071292 3.645975 0.298173 
1999.323486 1683.310547 1052.231812 5.591860 2.807448 0.000001 
1999.323486 1681.210693 1000.793030 5.591862 2.798101 -0.228834 
1999.323486 1674.925049 949.696594 5.591862 2.770138 -0.456148 
1999.323364 1664.495483 899.282532 5.591866 2.723742 -0.680421 
1999.323364 1649.991455 849.886292 5.591867 2.659218 -0.900163 
1999.323364 1631.509399 801.836670 5.591867 2.576997 -1.113922 
1999.323364 1609.172363 755.453308 5.591853 2.477652 -1.320272 
1999.323364 1583.129028 711.044983 5.591859 2.361773 -1.517826 
1999.323242 1553.552612 668.907227 5.591865 2.230196 -1.705281 
1999.323242 1520.640015 629.320435 5.591858 2.083787 -1.881395 
1999.323120 1484.610229 592.548035 5.591865 1.923494 -2.044976 
1999.323120 1445.703003 558.834778 5.591866 1.750411 -2.194950 
1999.323120 1404.177368 528.404968 5.591862 1.565675 -2.330323 
1999.322998 1360.309570 501.461151 5.591865 1.370522 -2.450188 
1999.322998 1314.391479 478.182617 5.591863 1.166247 -2.553743 
1999.322876 1266.728882 458.724335 5.591867 0.954210 -2.640306 
1999.322754 1217.638794 443.215668 5.591866 0.735830 -2.709300 
1999.322754 1167.447998 431.759949 5.591864 0.512550 -2.760263 
1999.322632 1116.490356 424.433350 5.591867 0.285856 -2.792853 
1999.322632 1065.105103 421.284607 5.591864 0.057262 -2.806861 
1999.322510 1013.634216 422.334778 5.591866 -0.171715 -2.802188 
1999.322510 962.420227 427.576782 5.591865 -0.399548 -2.778868 
1999.322388 911.803894 436.975769 5.591864 -0.624726 -2.737058 
1999.322388 862.122070 450.469208 5.591855 -0.845741 -2.677043 
1999.322266 813.705444 467.967224 5.591865 -1.061134 -2.599183 
1999.322144 766.876099 489.353485 5.591858 -1.269459 -2.504062 
1999.322144 721.945801 514.485535 5.591865 -1.469336 -2.392239 
1999.322021 679.213501 543.196289 5.591859 -1.659442 -2.264531 
1999.322021 638.963562 575.294495 5.591856 -1.838501 -2.121740 
1999.322021 601.463867 610.566711 5.591856 -2.005325 -1.964819 
1999.321899 566.963928 648.778076 5.591860 -2.158801 -1.794831 
1999.321899 535.693420 689.674377 5.591864 -2.297904 -1.612887 
1999.321899 507.860352 732.983459 5.591853 -2.421736 -1.420230 
1999.321777 483.650024 778.417114 5.591859 -2.529438 -1.218109 
1999.321777 463.223450 825.672913 5.591859 -2.620306 -1.007886 
1999.321777 446.716736 874.436462 5.591866 -2.693727 -0.790946 
1999.321777 434.239502 924.383179 5.591861 -2.749238 -0.568753 
1999.321777 425.875000 975.180664 5.591854 -2.786460 -0.342776 
1999.321777 421.678772 1026.490967 5.591856 -2.805124 -0.114512 
1999.321777 421.678772 1077.972534 5.591856 -2.805125 0.114513 
1999.321777 425.875000 1129.282837 5.591855 -2.786460 0.342772 
1999.321777 434.239502 1180.080444 5.591862 -2.749235 0.568754 
1999.321777 446.716736 1230.027100 5.591866 -2.693724 0.790949 
1999.321777 463.223450 1278.790649 5.591859 -2.620306 1.007884 
1999.321777 483.650024 1326.046509 5.591854 -2.529445 1.218112 
1999.321899 507.860352 1371.480103 5.591855 -2.421736 1.420226 
1999.321899 535.693420 1414.789185 5.591867 -2.297895 1.612888 
1999.321899 566.963928 1455.685547 5.591858 -2.158802 1.794829 
1999.322021 601.463867 1493.896851 5.591856 -2.005324 1.964818 
1999.322021 638.963562 1529.169067 5.591860 -1.838497 2.121734 
1999.322021 679.213501 1561.267334 5.591858 -1.659444 2.264530 
1999.322144 721.945801 1589.978027 5.591866 -1.469329 2.392240 
1999.322144 766.876099 1615.110107 5.591857 -1.269465 2.504060 
1999.322266 813.705444 1636.496338 5.591865 -1.061128 2.599186 
1999.322388 862.122070 1653.994385 5.591852 -0.845748 2.677046 
1999.322388 911.803894 1667.487793 5.591864 -0.624723 2.737059 
1999.322510 962.420227 1676.886841 5.591861 -0.399550 2.778875 
1999.322510 1013.634216 1682.128784 5.591866 -0.171713 2.802186 
1999.322632 1065.105103 1683.178955 5.591865 0.057259 2.806860 
1999.322632 1116.490356 1680.030273 5.591867 0.285856 2.792850 
1999.322754 1167.447998 1672.703613 5.591867 0.512548 2.760261 
1999.322754 1217.638794 1661.247925 5.591866 0.735830 2.709297 
1999.322876 1266.728882 1645.739258 5.591864 0.954210 2.640312 
1999.322998 1314.391479 1626.281006 5.591863 1.166247 2.553742 
1999.322998 1360.309570 1603.002441 5.591866 1.370522 2.450185 
1999.323120 1404.177368 1576.058594 5.591863 1.565675 2.330325 
1999.323120 1445.703003 1545.628784 5.591868 1.750409 2.194946 
1999.323120 1484.610229 1511.915527 5.591865 1.923494 2.044974 
1999.323242 1520.640015 1475.143188 5.591856 2.083785 1.881397 
1999.323242 1553.552612 1435.556274 5.591863 2.230201 1.705282 
1999.323364 1583.129028 1393.418579 5.591857 2.361776 1.517827 
1999.323364 1609.172363 1349.010254 5.591856 2.477643 1.320275 
1999.323364 1631.509399 1302.626953 5.591866 2.576999 1.113919 
1999.323364 1649.991455 1254.577271 5.591866 2.659219 0.900163 
1999.323364 1664.495483 1205.181030 5.591864 2.723745 0.680422 
1999.323486 1674.925049 1154.766968 5.591861 2.770141 0.456148 
1999.323486 1681.210693 1103.670532 5.591861 2.798102 0.228832 
2006.257080 1666.196655 1052.231812 5.970288 1.872400 0.000001 
2006.257080 1664.153687 1002.187988 5.970290 1.866165 -0.152619 
2006.257080 1658.038574 952.477173 5.970287 1.847521 -0.304223 
2006.257080 1647.891846 903.430298 5.970281 1.816592 -0.453803 
2006.257080 1633.781128 855.373596 5.970284 1.773547 -0.600360 
2006.257080 1615.800293 808.626953 5.970282 1.718713 -0.742920 
2006.257080 1594.069092 763.501465 5.970282 1.652437 -0.880543 
2006.256958 1568.731934 720.297485 5.970288 1.575157 -1.012302 
2006.256958 1539.957642 679.302429 5.970282 1.487415 -1.137324 
2006.256958 1507.937500 640.789124 5.970284 1.389756 -1.254779 
2006.256836 1472.884766 605.013977 5.970282 1.282866 -1.363889 
2006.256836 1435.032715 572.214966 5.970283 1.167421 -1.463909 
2006.256714 1394.633179 542.610352 5.970287 1.044210 -1.554191 
2006.256714 1351.954956 516.397217 5.970284 0.914055 -1.634134 
2006.256592 1307.282104 493.749969 5.970288 0.777815 -1.703198 
2006.256592 1260.911987 474.819305 5.970282 0.636402 -1.760937 
2006.256470 1213.153198 459.731232 5.970281 0.490760 -1.806960 
2006.256470 1164.323486 448.586151 5.970282 0.341835 -1.840939 
2006.256348 1114.747803 441.458282 5.970281 0.190650 -1.862684 
2006.256348 1064.755981 438.394958 5.970284 0.038184 -1.872014 
2006.256226 1014.680969 439.416656 5.970282 -0.114525 -1.868909 
2006.256226 964.855774 444.516479 5.970283 -0.266481 -1.853345 
2006.256104 915.612061 453.660614 5.970282 -0.416657 -1.825468 
2006.256104 867.277588 466.788055 5.970280 -0.564065 -1.785437 
2006.255981 820.173889 483.811615 5.970281 -0.707722 -1.733519 
2006.255981 774.614502 504.617859 5.970273 -0.846666 -1.670081 
2006.255859 730.902649 529.068420 5.970281 -0.979974 -1.595496 
2006.255859 689.329163 557.000488 5.970271 -1.106763 -1.510333 
2006.255859 650.170715 588.228333 5.970275 -1.226182 -1.415077 
2006.255737 613.687988 622.544006 5.970281 -1.337441 -1.310421 
2006.255737 580.123657 659.719116 5.970273 -1.439812 -1.197060 
2006.255615 549.701172 699.506409 5.970281 -1.532581 -1.075706 
2006.255615 522.622864 741.640991 5.970279 -1.615162 -0.947213 
2006.255615 499.069092 785.842529 5.970273 -1.687008 -0.812420 
2006.255615 479.196503 831.816833 5.970273 -1.747612 -0.672204 
2006.255493 463.137329 879.257996 5.970279 -1.796576 -0.527515 
2006.255493 450.998535 927.850220 5.970281 -1.833591 -0.379328 
2006.255493 442.860840 977.270203 5.970280 -1.858410 -0.228611 
2006.255493 438.778412 1027.189087 5.970281 -1.870859 -0.076373 
2006.255493 438.778412 1077.274536 5.970280 -1.870860 0.076373 
2006.255493 442.860840 1127.193359 5.970281 -1.858410 0.228611 
2006.255493 450.998535 1176.613403 5.970280 -1.833591 0.379329 
2006.255493 463.137329 1225.205566 5.970279 -1.796578 0.527518 
2006.255615 479.196503 1272.646729 5.970273 -1.747615 0.672202 
2006.255615 499.069092 1318.621094 5.970273 -1.687008 0.812417 
2006.255615 522.622864 1362.822510 5.970281 -1.615157 0.947214 
2006.255615 549.701172 1404.957153 5.970280 -1.532581 1.075710 
2006.255737 580.123657 1444.744385 5.970274 -1.439813 1.197053 
2006.255737 613.687988 1481.919556 5.970279 -1.337441 1.310425 
2006.255859 650.170715 1516.235229 5.970275 -1.226180 1.415080 
2006.255859 689.329163 1547.463013 5.970275 -1.106763 1.510323 
2006.255859 730.902649 1575.395142 5.970280 -0.979969 1.595500 
2006.255981 774.614502 1599.845703 5.970273 -0.846672 1.670078 
2006.255981 820.173889 1620.651978 5.970281 -0.707719 1.733519 
2006.256104 867.277588 1637.675537 5.970280 -0.564066 1.785436 
2006.256104 915.612061 1650.802979 5.970281 -0.416660 1.825471 
2006.256226 964.855774 1659.947144 5.970283 -0.266475 1.853345 
2006.256226 1014.680969 1665.046875 5.970283 -0.114529 1.868908 
2006.256348 1064.755981 1666.068604 5.970284 0.038189 1.872014 
2006.256348 1114.747803 1663.005249 5.970283 0.190645 1.862682 
2006.256470 1164.323486 1655.877441 5.970281 0.341839 1.840940 
2006.256470 1213.153198 1644.732300 5.970282 0.490755 1.806959 
2006.256592 1260.911987 1629.644287 5.970283 0.636402 1.760934 
2006.256592 1307.282104 1610.713623 5.970289 0.777816 1.703195 
2006.256714 1351.954956 1588.066284 5.970285 0.914054 1.634132 
2006.256714 1394.633179 1561.853271 5.970286 1.044211 1.554193 
2006.256836 1435.032715 1532.248657 5.970281 1.167424 1.463910 
2006.256836 1472.884766 1499.449585 5.970282 1.282863 1.363893 
2006.256958 1507.937500 1463.674438 5.970284 1.389760 1.254778 
2006.256958 1539.957642 1425.161133 5.970283 1.487412 1.137324 
2006.256958 1568.731934 1384.166138 5.970287 1.575160 1.012301 
2006.257080 1594.069092 1340.962036 5.970281 1.652438 0.880545 
2006.257080 1615.800293 1295.836670 5.970283 1.718712 0.742921 
2006.257080 1633.781128 1249.089966 5.970284 1.773546 0.600357 
2006.257080 1647.891846 1201.033325 5.970282 1.816588 0.453807 
2006.257080 1658.038574 1151.986328 5.970288 1.847519 0.304220 
2006.257080 1664.153687 1102.275635 5.970290 1.866165 0.152618 
2011.513672 1642.552612 1052.231812 6.199434 0.874501 0.000000 
2011.513672 1640.588257 1004.115173 6.199435 0.871589 -0.071280 
2011.513672 1634.708618 956.318787 6.199436 0.862879 -0.142085 
2011.513672 1624.952637 909.160706 6.199435 0.848423 -0.211949 
2011.513550 1611.385376 862.954712 6.199438 0.828324 -0.280398 
2011.513550 1594.097046 818.008301 6.199438 0.802707 -0.346975 
2011.513550 1573.202637 774.620667 6.199438 0.771750 -0.411249 
2011.513550 1548.841187 733.080444 6.199435 0.735670 -0.472792 
2011.513428 1521.175049 693.664124 6.199438 0.694686 -0.531183 
2011.513428 1490.388062 656.634033 6.199438 0.649072 -0.586035 
2011.513428 1456.685303 622.236572 6.199435 0.599153 -0.636997 
2011.513306 1420.290894 590.700623 6.199437 0.545235 -0.683716 
2011.513306 1381.447144 562.236145 6.199435 0.487692 -0.725883 
2011.513184 1340.412476 537.032471 6.199437 0.426902 -0.763219 
2011.513184 1297.460083 515.257385 6.199435 0.363274 -0.795477 
2011.513062 1252.875610 497.055756 6.199438 0.297225 -0.822439 
2011.513062 1206.956055 482.548706 6.199435 0.229201 -0.843930 
2011.512939 1160.006714 471.832886 6.199438 0.159648 -0.859801 
2011.512939 1112.340210 464.979462 6.199435 0.089037 -0.869956 
2011.512817 1064.273682 462.034119 6.199438 0.017830 -0.874317 
2011.512817 1016.127075 463.016449 6.199434 -0.053491 -0.872875 
2011.512695 968.220703 467.919891 6.199437 -0.124465 -0.865599 
2011.512695 920.873352 476.711884 6.199434 -0.194598 -0.852589 
2011.512695 874.400269 489.333801 6.199434 -0.263450 -0.833875 
2011.512573 829.110535 505.701721 6.199434 -0.330542 -0.809639 
2011.512573 785.305664 525.706787 6.199435 -0.395435 -0.779990 
2011.512451 743.277222 549.215698 6.199435 -0.457696 -0.745175 
2011.512451 703.304749 576.072144 6.199435 -0.516911 -0.705388 
2011.512329 665.654358 606.097290 6.199437 -0.572685 -0.660897 
2011.512329 630.576538 639.091492 6.199434 -0.624650 -0.612036 
2011.512329 598.304749 674.835022 6.199434 -0.672456 -0.559069 
2011.512207 569.053833 713.090027 6.199434 -0.715793 -0.502407 
2011.512207 543.018372 753.602051 6.199434 -0.754361 -0.442397 
2011.512207 520.371643 796.101318 6.199433 -0.787911 -0.379438 
2011.512207 501.264343 840.305115 6.199434 -0.816210 -0.313940 
2011.512085 485.823700 885.919312 6.199435 -0.839089 -0.246373 
2011.512085 474.152313 932.640198 6.199434 -0.856381 -0.177166 
2011.512085 466.328033 980.156982 6.199434 -0.867972 -0.106773 
2011.512085 462.402832 1028.153442 6.199434 -0.873786 -0.035670 
2011.512085 462.402832 1076.310181 6.199434 -0.873786 0.035670 
2011.512085 466.328033 1124.306519 6.199434 -0.867972 0.106773 
2011.512085 474.152313 1171.823364 6.199434 -0.856381 0.177166 
2011.512085 485.823700 1218.544312 6.199435 -0.839092 0.246372 
2011.512207 501.264343 1264.158447 6.199434 -0.816208 0.313944 
2011.512207 520.371643 1308.362305 6.199434 -0.787910 0.379435 
2011.512207 543.018372 1350.861572 6.199434 -0.754362 0.442398 
2011.512207 569.053833 1391.373535 6.199434 -0.715797 0.502407 
2011.512329 598.304749 1429.628540 6.199434 -0.672453 0.559073 
2011.512329 630.576538 1465.372070 6.199435 -0.624651 0.612029 
2011.512329 665.654358 1498.366211 6.199438 -0.572680 0.660900 
2011.512451 703.304749 1528.391479 6.199433 -0.516916 0.705390 
2011.512451 743.277222 1555.247925 6.199434 -0.457700 0.745177 
2011.512573 785.305664 1578.756836 6.199434 -0.395431 0.779994 
2011.512573 829.110535 1598.761841 6.199434 -0.330546 0.809637 
2011.512695 874.400269 1615.129761 6.199434 -0.263445 0.833876 
2011.512695 920.873352 1627.751709 6.199435 -0.194603 0.852583 
2011.512695 968.220703 1636.543701 6.199438 -0.124459 0.865600 
2011.512817 1016.127075 1641.447144 6.199433 -0.053498 0.872876 
2011.512817 1064.273682 1642.429443 6.199438 0.017834 0.874320 
2011.512939 1112.340210 1639.484131 6.199435 0.089035 0.869957 
2011.512939 1160.006714 1632.630737 6.199438 0.159650 0.859802 
2011.513062 1206.956055 1621.914917 6.199434 0.229200 0.843933 
2011.513062 1252.875610 1607.407837 6.199438 0.297226 0.822438 
2011.513184 1297.460083 1589.206177 6.199435 0.363273 0.795477 
2011.513184 1340.412476 1567.431152 6.199437 0.426903 0.763221 
2011.513306 1381.447144 1542.227417 6.199435 0.487691 0.725882 
2011.513306 1420.290894 1513.762939 6.199437 0.545235 0.683715 
2011.513428 1456.685303 1482.227051 6.199434 0.599152 0.637002 
2011.513428 1490.388062 1447.829590 6.199439 0.649073 0.586028 
2011.513428 1521.175049 1410.799438 6.199438 0.694686 0.531186 
2011.513550 1548.841187 1371.383179 6.199435 0.735671 0.472796 
2011.513550 1573.202637 1329.842896 6.199439 0.771751 0.411246 
2011.513550 1594.097046 1286.455322 6.199438 0.802705 0.346973 
2011.513550 1611.385376 1241.508911 6.199438 0.828326 0.280401 
2011.513672 1624.952637 1195.302856 6.199435 0.848427 0.211951 
2011.513672 1634.708618 1148.144775 6.199435 0.862880 0.142085 
2011.513672 1640.588257 1100.348389 6.199435 0.871590 0.071280 
2013.036865 1616.028320 1052.231812 6.268347 -0.057858 -0.000000 
2013.036865 1614.152344 1006.277161 6.268347 -0.057664 0.004716 
2013.036865 1608.536865 960.628357 6.268348 -0.057089 0.009400 
2013.036865 1599.219360 915.589111 6.268347 -0.056128 0.014019 
2013.036865 1586.261597 871.459290 6.268347 -0.054793 0.018542 
2013.036743 1569.750122 828.532410 6.268348 -0.053100 0.022946 
2013.036743 1549.794434 787.094177 6.268348 -0.051050 0.027203 
2013.036743 1526.527710 747.420471 6.268348 -0.048671 0.031273 
2013.036743 1500.104614 709.775208 6.268346 -0.045954 0.035131 
2013.036621 1470.700928 674.408936 6.268349 -0.042940 0.038761 
2013.036621 1438.512451 641.557007 6.268348 -0.039641 0.042136 
2013.036621 1403.753296 611.438049 6.268346 -0.036070 0.045221 
2013.036499 1366.654907 584.252563 6.268348 -0.032267 0.048009 
2013.036499 1327.463989 560.181335 6.268347 -0.028245 0.050478 
2013.036377 1286.441528 539.384583 6.268349 -0.024037 0.052613 
2013.036377 1243.860352 522.000793 6.268347 -0.019667 0.054396 
2013.036255 1200.004028 508.145630 6.268348 -0.015170 0.055820 
2013.036255 1155.164185 497.911224 6.268346 -0.010568 0.056868 
2013.036133 1109.639404 491.365784 6.268349 -0.005899 0.057543 
2013.036133 1063.732666 488.552734 6.268347 -0.001182 0.057827 
2013.036133 1017.749329 489.490936 6.268346 0.003530 0.057734 
2013.036011 971.995422 494.174072 6.268346 0.008223 0.057254 
2013.036011 926.775574 502.570984 6.268346 0.012866 0.056395 
2013.035889 882.390564 514.625854 6.268348 0.017417 0.055161 
2013.035889 839.135803 530.258301 6.268347 0.021855 0.053554 
2013.035767 797.299194 549.364441 6.268349 0.026148 0.051597 
2013.035767 757.159058 571.817078 6.268347 0.030269 0.049286 
2013.035767 718.982666 597.466797 6.268346 0.034183 0.046661 
2013.035645 683.023987 626.142944 6.268348 0.037868 0.043711 
2013.035645 649.522278 657.654602 6.268347 0.041305 0.040478 
2013.035522 618.700562 691.792114 6.268349 0.044471 0.036988 
2013.035522 590.763916 728.328308 6.268348 0.047334 0.033224 
2013.035522 565.898254 767.019958 6.268347 0.049884 0.029254 
2013.035522 544.269104 807.609741 6.268346 0.052111 0.025104 
2013.035400 526.020325 849.827393 6.268348 0.053985 0.020775 
2013.035400 511.273438 893.392029 6.268347 0.055488 0.016293 
2013.035400 500.126495 938.013672 6.268348 0.056631 0.011716 
2013.035400 492.653717 983.395447 6.268348 0.057397 0.007061 
2013.035400 488.904907 1029.235352 6.268348 0.057782 0.002359 
2013.035400 488.904907 1075.228271 6.268347 0.057782 -0.002359 
2013.035400 492.653717 1121.068115 6.268347 0.057397 -0.007061 
2013.035400 500.126495 1166.449951 6.268347 0.056631 -0.011716 
2013.035400 511.273438 1211.071533 6.268348 0.055490 -0.016296 
2013.035400 526.020325 1254.636230 6.268349 0.053984 -0.020771 
2013.035522 544.269104 1296.853882 6.268346 0.052109 -0.025101 
2013.035522 565.898254 1337.443604 6.268347 0.049885 -0.029258 
2013.035522 590.763916 1376.135254 6.268347 0.047334 -0.033228 
2013.035522 618.700562 1412.671387 6.268348 0.044475 -0.036984 
2013.035645 649.522278 1446.808960 6.268346 0.041301 -0.040479 
2013.035645 683.023987 1478.320679 6.268348 0.037863 -0.043710 
2013.035767 718.982666 1506.996704 6.268346 0.034184 -0.046658 
2013.035767 757.159058 1532.646484 6.268347 0.030271 -0.049291 
2013.035767 797.299194 1555.099121 6.268349 0.026149 -0.051597 
2013.035889 839.135803 1574.205322 6.268347 0.021854 -0.053554 
2013.035889 882.390564 1589.837769 6.268348 0.017418 -0.055160 
2013.036011 926.775574 1601.892578 6.268345 0.012865 -0.056391 
2013.036011 971.995422 1610.289551 6.268347 0.008223 -0.057253 
2013.036133 1017.749329 1614.972656 6.268347 0.003529 -0.057734 
2013.036133 1063.732666 1615.910889 6.268347 -0.001183 -0.057831 
2013.036133 1109.639404 1613.097778 6.268348 -0.005898 -0.057544 
2013.036255 1155.164185 1606.552368 6.268346 -0.010569 -0.056868 
2013.036255 1200.004028 1596.317993 6.268348 -0.015169 -0.055820 
2013.036377 1243.860352 1582.462769 6.268346 -0.019668 -0.054396 
2013.036377 1286.441528 1565.078979 6.268348 -0.024037 -0.052613 
2013.036499 1327.463989 1544.282227 6.268346 -0.028245 -0.050478 
2013.036499 1366.654907 1520.211060 6.268348 -0.032266 -0.048009 
2013.036621 1403.753296 1493.025513 6.268346 -0.036071 -0.045218 
2013.036621 1438.512451 1462.906616 6.268347 -0.039640 -0.042143 
2013.036621 1470.700928 1430.054688 6.268349 -0.042939 -0.038758 
2013.036743 1500.104614 1394.688354 6.268346 -0.045954 -0.035127 
2013.036743 1526.527710 1357.043091 6.268348 -0.048672 -0.031280 
2013.036743 1549.794434 1317.369385 6.268348 -0.051053 -0.027202 
2013.036743 1569.750122 1275.931152 6.268348 -0.053096 -0.022945 
2013.036865 1586.261597 1233.004272 6.268346 -0.054792 -0.018538 
2013.036865 1599.219360 1188.874512 6.268347 -0.056130 -0.014021 
2013.036865 1608.536865 1143.835205 6.268347 -0.057089 -0.009401 
2013.036865 1614.152344 1098.186401 6.268347 -0.057664 -0.004716 
2010.618652 1585.625488 1052.231812 6.217928 -0.839666 0.000000 
2010.618652 1583.850586 1008.755249 6.217929 -0.836874 0.068441 
2010.618652 1578.537964 965.568115 6.217929 -0.828509 0.136426 
2010.618652 1569.722778 922.957642 6.217929 -0.814633 0.203503 
2010.618652 1557.463867 881.207458 6.217929 -0.795333 0.269222 
2010.618652 1541.842773 840.595459 6.217930 -0.770730 0.333151 
2010.618652 1522.963257 801.391846 6.217928 -0.741025 0.394863 
2010.618530 1500.951172 763.857544 6.217928 -0.706377 0.453953 
2010.618530 1475.952881 728.242310 6.217928 -0.667020 0.510019 
2010.618530 1448.134888 694.783142 6.217929 -0.623224 0.562683 
2010.618408 1417.682129 663.702759 6.217929 -0.575295 0.611614 
2010.618408 1384.797363 635.208008 6.217929 -0.523523 0.656474 
2010.618408 1349.699463 609.488464 6.217928 -0.468271 0.696953 
2010.618286 1312.622070 586.715271 6.217929 -0.409914 0.732806 
2010.618286 1273.811646 567.040039 6.217929 -0.348810 0.763774 
2010.618164 1233.526733 550.593689 6.217929 -0.285404 0.789670 
2010.618164 1192.035400 537.485657 6.217929 -0.220081 0.810300 
2010.618042 1149.613525 527.803162 6.217929 -0.153308 0.825549 
2010.618042 1106.543701 521.610657 6.217929 -0.085502 0.835290 
2010.617920 1063.112427 518.949341 6.217931 -0.017134 0.839483 
2010.617920 1019.608826 519.836975 6.217929 0.051345 0.838092 
2010.617798 976.322266 524.267578 6.217931 0.119489 0.831113 
2010.617798 933.540833 532.211670 6.217929 0.186837 0.818611 
2010.617798 891.549316 543.616394 6.217929 0.252937 0.800653 
2010.617676 850.627075 558.405884 6.217929 0.317354 0.777380 
2010.617676 811.046509 576.481750 6.217929 0.379663 0.748917 
2010.617554 773.070984 597.723633 6.217931 0.439444 0.715481 
2010.617554 736.953247 621.990173 6.217931 0.496301 0.677276 
2010.617554 702.933655 649.119934 6.217930 0.549853 0.634567 
2010.617554 671.238525 678.932312 6.217929 0.599743 0.587644 
2010.617432 642.078857 711.228943 6.217932 0.645641 0.536796 
2010.617432 615.648743 745.794922 6.217930 0.687254 0.482385 
2010.617432 592.123962 782.400146 6.217929 0.724288 0.424767 
2010.617310 571.661194 820.801025 6.217931 0.756499 0.364321 
2010.617310 554.396484 860.742126 6.217931 0.783669 0.301434 
2010.617310 540.444763 901.957520 6.217931 0.805631 0.236555 
2010.617310 529.898926 944.172913 6.217930 0.822238 0.170105 
2010.617310 522.829163 987.107483 6.217930 0.833370 0.102516 
2010.617310 519.282532 1030.475464 6.217930 0.838954 0.034248 
2010.617310 519.282532 1073.988159 6.217930 0.838955 -0.034248 
2010.617310 522.829163 1117.356079 6.217930 0.833371 -0.102516 
2010.617310 529.898926 1160.290649 6.217930 0.822241 -0.170103 
2010.617310 540.444763 1202.506104 6.217931 0.805632 -0.236558 
2010.617310 554.396484 1243.721436 6.217931 0.783670 -0.301438 
2010.617310 571.661194 1283.662476 6.217930 0.756499 -0.364317 
2010.617432 592.123962 1322.063477 6.217930 0.724284 -0.424765 
2010.617432 615.648743 1358.668701 6.217930 0.687257 -0.482385 
2010.617432 642.078857 1393.234619 6.217931 0.645638 -0.536801 
2010.617554 671.238525 1425.531250 6.217930 0.599743 -0.587641 
2010.617554 702.933655 1455.343628 6.217930 0.549855 -0.634571 
2010.617554 736.953247 1482.473389 6.217930 0.496305 -0.677279 
2010.617554 773.070984 1506.739990 6.217931 0.439442 -0.715477 
2010.617676 811.046509 1527.981812 6.217929 0.379659 -0.748916 
2010.617676 850.627075 1546.057617 6.217929 0.317359 -0.777378 
2010.617798 891.549316 1560.847168 6.217929 0.252932 -0.800654 
2010.617798 933.540833 1572.251953 6.217928 0.186843 -0.818613 
2010.617798 976.322266 1580.196045 6.217930 0.119484 -0.831112 
2010.617920 1019.608826 1584.626587 6.217929 0.051349 -0.838092 
2010.617920 1063.112427 1585.514282 6.217931 -0.017136 -0.839480 
2010.618042 1106.543701 1582.852905 6.217930 -0.085506 -0.835288 
2010.618042 1149.613525 1576.660400 6.217929 -0.153303 -0.825549 
2010.618164 1192.035400 1566.977905 6.217929 -0.220086 -0.810299 
2010.618164 1233.526733 1553.869873 6.217929 -0.285399 -0.789673 
2010.618286 1273.811646 1537.423462 6.217929 -0.348816 -0.763773 
2010.618286 1312.622070 1517.748291 6.217929 -0.409908 -0.732809 
2010.618408 1349.699463 1494.975098 6.217930 -0.468276 -0.696949 
2010.618408 1384.797363 1469.255615 6.217929 -0.523522 -0.656477 
2010.618408 1417.682129 1440.760742 6.217929 -0.575293 -0.611615 
2010.618530 1448.134888 1409.680420 6.217929 -0.623228 -0.562678 
2010.618530 1475.952881 1376.221313 6.217928 -0.667020 -0.510023 
2010.618530 1500.951172 1340.606079 6.217929 -0.706373 -0.453951 
2010.618652 1522.963257 1303.071777 6.217928 -0.741022 -0.394864 
2010.618652 1541.842773 1263.868164 6.217929 -0.770737 -0.333148 
2010.618652 1557.463867 1223.256104 6.217928 -0.795334 -0.269225 
2010.618652 1569.722778 1181.505981 6.217929 -0.814632 -0.203503 
2010.618652 1578.537964 1138.895508 6.217929 -0.828509 -0.136426 
2010.618652 1583.850586 1095.708252 6.217928 -0.836874 -0.068441 
2003.802979 1550.560791 1052.231812 6.107098 -1.457590 0.000000 
2003.802979 1548.902710 1011.613342 6.107098 -1.452741 0.118807 
2003.802979 1543.939209 971.265259 6.107098 -1.438223 0.236825 
2003.802979 1535.703613 931.455933 6.107098 -1.414134 0.353265 
2003.802979 1524.250488 892.450439 6.107098 -1.380634 0.467354 
2003.802979 1509.656250 854.508179 6.107097 -1.337951 0.578327 
2003.802856 1492.017944 817.881775 6.107099 -1.286361 0.685456 
2003.802856 1471.452881 782.814941 6.107100 -1.226196 0.788028 
2003.802856 1448.098022 749.540955 6.107100 -1.157890 0.885354 
2003.802856 1422.108643 718.281433 6.107098 -1.081877 0.976784 
2003.802734 1393.657837 689.244263 6.107100 -0.998657 1.061714 
2003.802734 1362.934937 662.622681 6.107100 -0.908787 1.139584 
2003.802734 1330.144287 638.593933 6.107098 -0.812890 1.209865 
2003.802612 1295.504272 617.317810 6.107100 -0.711564 1.272095 
