73.168144 36.549583 25.125402 0.000000 -1.341212 -6.125144 
95.430824 39.605576 29.220760 2.420036 -3.260862 -4.777244 
95.097542 38.128189 29.878668 2.630020 -2.333112 -5.191764 
94.878677 36.549583 30.310732 2.767955 -1.341210 -5.464047 
94.780182 34.912792 30.505161 2.827818 -0.310445 -5.587771 
94.804749 33.262451 30.456665 2.855387 0.478641 -5.572419 
91.573303 40.941456 26.426069 1.738090 -4.098956 -4.414085 
91.217705 39.605576 27.329155 1.962054 -3.260864 -4.982869 
90.947495 38.128189 28.015383 2.132298 -2.333115 -5.415228 
90.770042 36.549583 28.466042 2.244130 -1.341210 -5.699234 
87.442261 42.099403 23.777075 1.111377 -4.824350 -3.845567 
87.115433 40.941456 24.907969 1.317110 -4.098959 -4.557446 
86.845963 39.605576 25.840387 1.486829 -3.260861 -5.144704 
86.641205 38.128189 26.548901 1.615843 -2.333108 -5.591107 
86.506729 36.549583 27.014193 1.700583 -1.341217 -5.884334 
86.446213 34.912792 27.223583 1.738724 -0.312442 -6.016307 
86.461311 33.262451 27.171354 1.735378 0.472283 -6.015517 
83.006523 43.047852 21.329477 0.587853 -5.417148 -3.097409 
82.754494 42.099403 22.657450 0.746388 -4.824354 -3.932736 
82.534996 40.941456 23.813982 0.884557 -4.098957 -4.660755 
82.354019 39.605576 24.767532 0.998540 -3.260860 -5.261328 
82.216507 38.128189 25.492109 1.085181 -2.333115 -5.717847 
82.126198 36.549583 25.967953 1.142095 -1.341213 -6.017724 
82.085556 34.912792 26.182085 1.167710 -0.312439 -6.152689 
82.095695 33.262451 26.128675 1.208128 0.486832 -6.142917 
78.109047 43.047852 20.635977 0.295224 -5.417147 -3.138847 
77.982468 42.099403 21.981716 0.374839 -4.824354 -3.985348 
77.872238 40.941456 23.153719 0.444231 -4.098954 -4.723111 
77.781349 39.605576 24.120026 0.501473 -3.260861 -5.331715 
77.712288 38.128189 24.854296 0.544985 -2.333115 -5.794341 
77.666939 36.549583 25.336504 0.573569 -1.341213 -6.098230 
58.105247 43.760941 21.047764 -0.608794 -5.862984 -2.125124 
63.052063 43.760941 19.866268 -0.414248 -5.861670 -2.175945 
63.329762 43.047852 21.329477 -0.587853 -5.417149 -3.097407 
40.056774 43.760941 30.190683 -1.345628 -5.862911 -1.754167 
44.226738 43.760941 27.278931 -1.183174 -5.862420 -1.869576 
45.021217 43.047852 28.538652 -1.681804 -5.417148 -2.666653 
49.324070 43.047852 26.099033 -1.424705 -5.417149 -2.812423 
49.934895 42.099403 27.304825 -1.808930 -4.824351 -3.570897 
54.331692 42.099403 25.330751 -1.466598 -4.824352 -3.724596 
54.762985 40.941456 26.426069 -1.738090 -4.098955 -4.414086 
59.220856 40.941456 24.907969 -1.317111 -4.098958 -4.557446 
59.490322 39.605576 25.840387 -1.486830 -3.260862 -5.144704 
63.982265 39.605576 24.767532 -0.998540 -3.260861 -5.261327 
64.119781 38.128189 25.492109 -1.085183 -2.333116 -5.717846 
68.669350 36.549583 25.336504 -0.573569 -1.341215 -6.098229 
73.168144 34.912792 25.343359 -0.000000 -0.312443 -6.262517 
66.504654 33.262451 25.754951 -0.875444 0.526328 -6.197907 
64.240593 33.262451 26.128675 -1.235650 0.469620 -6.138980 
64.250732 34.912792 26.182085 -1.189083 -0.292552 -6.148799 
59.890072 34.912792 27.223583 -1.738726 -0.312443 -6.016307 
59.829556 36.549583 27.014193 -1.700585 -1.341216 -5.884335 
55.566242 36.549583 28.466042 -2.244131 -1.341217 -5.699232 
55.388790 38.128189 28.015383 -2.132301 -2.333114 -5.415228 
51.238743 38.128189 29.878668 -2.630020 -2.333114 -5.191762 
50.905464 39.605576 29.220760 -2.420037 -3.260860 -4.777246 
46.887985 39.605576 31.498577 -2.856753 -3.260857 -4.529640 
46.370235 40.941456 30.677635 -2.530659 -4.098955 -4.012589 
42.509109 40.941456 33.373737 -2.895283 -4.098957 -3.757980 
41.790668 42.099403 32.441219 -2.443033 -4.824354 -3.170976 
38.114811 42.099403 35.558411 -2.729234 -4.824353 -2.928274 
37.193226 43.047852 34.569618 -2.149535 -5.417147 -2.306297 
33.736877 43.047852 38.107960 -2.356055 -5.417148 -2.094878 
32.623882 43.760941 37.118351 -1.653932 -5.863508 -1.464274 
29.426281 43.760941 41.073376 -1.785652 -5.862875 -1.303824 
51.457615 36.549583 30.310732 -2.767952 -1.341215 -5.464046 
47.281410 38.128189 32.122383 -3.104629 -2.333112 -4.922670 
43.101463 39.605576 34.142586 -3.268362 -3.260859 -4.242226 
38.917419 40.941456 36.419552 -3.234466 -4.098955 -3.470352 
34.747005 42.099403 39.006115 -2.991449 -4.824355 -2.659836 
30.627052 43.047852 41.954422 -2.541870 -5.417148 -1.865048 
26.613079 43.760941 45.310455 -1.894112 -5.862974 -1.139905 
47.796062 33.262451 32.564323 -3.205285 0.479025 -5.379185 
47.656048 34.912792 32.716408 -3.345280 -0.304584 -5.294138 
47.539780 36.549583 32.532051 -3.267453 -1.341217 -5.180842 
43.847164 36.549583 35.110489 -3.738240 -1.341215 -4.852107 
43.551571 38.128189 34.726814 -3.551955 -2.333113 -4.610316 
40.082005 38.128189 37.669067 -3.968063 -2.333117 -4.257447 
39.579163 39.605576 37.129555 -3.651248 -3.260861 -3.917530 
36.352047 39.605576 40.433231 -4.002048 -3.260861 -3.558408 
35.626724 40.941456 39.788315 -3.545223 -4.098955 -3.152222 
32.665947 40.941456 43.450420 -3.824824 -4.098952 -2.806393 
31.716846 42.099403 42.754036 -3.227376 -4.824353 -2.368026 
29.050961 42.099403 46.769238 -3.434941 -4.824352 -2.055406 
27.891081 43.047852 46.075184 -2.705346 -5.417148 -1.618829 
25.553003 43.047852 50.434044 -2.845049 -5.417147 -1.358384 
24.209007 43.760941 49.792347 -1.992688 -5.863380 -0.954184 
22.235193 43.760941 54.479668 -2.077577 -5.861915 -0.765933 
40.412228 36.549583 38.023376 -4.176170 -1.341207 -4.480735 
36.903198 38.128189 40.923286 -4.349299 -2.333111 -3.867169 
33.448471 39.605576 44.024582 -4.317680 -3.260855 -3.168017 
30.061100 40.941456 47.373688 -4.070810 -4.098957 -2.435897 
26.772778 42.099403 51.016434 -3.612319 -4.824354 -1.724721 
23.633368 43.047852 54.992691 -2.959750 -5.417147 -1.086001 
20.708975 43.760941 59.331223 -2.138717 -5.863112 -0.557586 
37.265148 36.549583 41.245113 -4.577403 -1.341213 -4.069983 
34.043087 38.128189 44.460873 -4.692317 -2.333119 -3.442897 
30.893955 39.605576 47.872051 -4.595364 -3.260861 -2.749779 
27.835083 40.941456 51.523636 -4.281024 -4.098956 -2.043998 
24.902321 42.099403 55.458302 -3.757952 -4.824354 -1.378879 
22.149048 43.047852 59.711063 -3.048438 -5.417147 -0.804073 
19.643772 43.760941 64.304375 -2.181526 -5.862599 -0.365383 
37.587002 33.262451 41.130741 -4.567545 0.483609 -4.282951 
37.428032 34.912792 41.389938 -4.685255 -0.301396 -4.155370 
34.433590 36.549583 44.747395 -4.938408 -1.341217 -3.623463 
31.942427 36.549583 48.499435 -5.256016 -1.341210 -3.145105 
31.526815 38.128189 48.250744 -4.994098 -2.333112 -2.988376 
29.376484 38.128189 52.259586 -5.251988 -2.333115 -2.507590 
28.710943 39.605576 51.941818 -4.832665 -3.260859 -2.307384 
26.918623 39.605576 56.198128 -5.027496 -3.260863 -1.844703 
26.007452 40.941456 55.863796 -4.453618 -4.098954 -1.634136 
24.594273 40.941456 60.356030 -4.587070 -4.098958 -1.209911 
23.456026 42.099403 60.055801 -3.870559 -4.824354 -1.020920 
22.446602 42.099403 64.768532 -3.949153 -4.824353 -0.653990 
21.113087 43.047852 64.547699 -3.110339 -5.417147 -0.515080 
20.534586 43.047852 69.460091 -3.144904 -5.417148 -0.221559 
19.048941 43.760941 69.355423 -2.203954 -5.863279 -0.158897 
18.929716 43.760941 74.439980 -2.213072 -5.862122 0.047627 
29.813559 36.549583 52.468269 -5.527434 -1.341216 -2.639101 
27.610998 38.128189 56.452175 -5.463726 -2.333116 -2.004766 
25.532749 39.605576 60.603569 -5.178145 -3.260864 -1.365816 
23.607962 40.941456 64.960854 -4.680213 -4.098956 -0.775056 
21.882921 42.099403 69.555084 -3.993043 -4.824351 -0.281311 
20.418633 43.047852 74.405067 -3.151834 -5.417146 0.073908 
19.287136 43.760941 79.513359 -2.193908 -5.863206 0.265467 
30.134651 33.262451 52.179306 -5.572962 0.485653 -2.854499 
30.010246 34.912792 52.562180 -5.655728 -0.298662 -2.689125 
28.065693 36.549583 56.619011 -5.750276 -1.341210 -2.109910 
26.245871 38.128189 60.791664 -5.627448 -2.333112 -1.484329 
24.565493 39.605576 65.119423 -5.283291 -3.260860 -0.874927 
23.057184 40.941456 69.637810 -4.732224 -4.098959 -0.333386 
21.769938 42.099403 74.373383 -4.001838 -4.824353 0.093841 
20.766243 43.047852 79.339172 -3.131062 -5.417147 0.368725 
20.118065 43.760941 84.530975 -2.165380 -5.861958 0.461721 
26.714188 36.549583 60.915192 -5.922584 -1.341213 -1.562174 
25.770922 36.549583 65.319046 -6.042843 -1.341214 -1.000711 
25.293093 38.128189 65.239914 -5.741716 -2.333113 -0.950843 
24.761047 38.128189 69.757843 -5.805527 -2.333110 -0.409001 
24.025362 39.605576 69.706017 -5.342002 -3.260864 -0.376344 
23.917097 39.605576 74.323029 -5.353774 -3.260860 0.125539 
22.946791 40.941456 74.345787 -4.742649 -4.098957 0.111211 
23.277737 40.941456 79.043411 -4.711399 -4.098955 0.554830 
22.108644 42.099403 79.181091 -3.975470 -4.824349 0.468166 
22.896063 42.099403 83.935959 -3.914160 -4.824352 0.838377 
21.574364 43.047852 84.219055 -3.082775 -5.417148 0.660301 
22.835888 43.047852 89.001816 -3.007396 -5.417150 0.946077 
21.415199 43.760941 89.448738 -2.109632 -5.863141 0.658812 
25.138605 36.549583 74.294388 -6.123460 -1.341209 0.143588 
25.455111 36.549583 78.786995 -6.083108 -1.341212 0.716368 
24.974100 38.128189 78.843643 -5.779973 -2.333110 0.680669 
25.717325 38.128189 83.331665 -5.690838 -2.333112 1.218924 
24.996176 39.605576 83.486130 -5.236476 -3.260857 1.121603 
26.174034 39.605576 87.951691 -5.108435 -3.260862 1.607027 
25.248192 40.941456 88.242943 -4.525320 -4.098953 1.423587 
26.870380 40.941456 92.664001 -4.372128 -4.098955 1.841091 
25.785473 42.099403 93.120850 -3.689194 -4.824349 1.553509 
27.862076 42.099403 97.470161 -3.527510 -4.824350 1.892144 
26.670937 43.047852 98.109085 -2.778250 -5.417148 1.490244 
29.210754 43.047852 102.353561 -2.626494 -5.417148 1.743855 
27.970001 43.760941 103.177353 -1.846007 -5.861341 1.226167 
30.978710 43.760941 107.277916 -1.722355 -5.862988 1.385721 
28.775372 33.262451 91.103989 -5.843874 0.495891 2.247142 
29.091831 34.912792 91.728554 -5.765470 -0.292824 2.445021 
28.890961 36.549583 91.813141 -5.645060 -1.341213 2.377116 
30.831459 36.549583 95.877396 -5.397655 -1.341219 2.895286 
30.404646 38.128189 96.106339 -5.128680 -2.333115 2.751007 
32.740517 38.128189 100.009979 -4.848535 -2.333116 3.219175 
32.126102 39.605576 100.417923 -4.461425 -3.260859 2.962154 
34.858150 39.605576 104.141426 -4.164442 -3.260860 3.366913 
34.103397 40.941456 104.751633 -3.689079 -4.098951 2.982587 
37.232574 40.941456 108.270935 -3.393579 -4.098948 3.314934 
36.390488 42.099403 109.093506 -2.863489 -4.824354 2.797130 
39.916195 42.099403 112.379570 -2.588982 -4.824352 3.052981 
39.041969 43.047852 113.410477 -2.039069 -5.417150 2.404515 
42.960270 43.047852 116.429276 -1.804949 -5.417148 2.584893 
42.107616 43.760941 117.650368 -1.264825 -5.862206 1.816204 
46.409481 43.760941 120.363472 -1.094572 -5.862946 1.920732 
35.438862 33.262451 102.645493 -4.993590 0.501004 3.776279 
35.977795 34.912792 103.236198 -4.859015 -0.291542 3.950805 
35.808308 36.549583 103.373230 -4.763141 -1.341213 3.850955 
38.800915 36.549583 106.738945 -4.381604 -1.341215 4.280063 
38.454449 38.128189 107.077385 -4.163257 -2.333114 4.066778 
41.782291 38.128189 110.179024 -3.764144 -2.333110 4.438765 
41.305294 39.605576 110.741516 -3.463607 -3.260866 4.084366 
44.963722 39.605576 113.560097 -3.065923 -3.260866 4.390755 
44.408062 40.941456 114.355873 -2.715953 -4.098959 3.889560 
48.391315 40.941456 116.868027 -2.339798 -4.098955 4.126796 
47.810715 42.099403 117.892059 -1.974317 -4.824354 3.482181 
52.110146 42.099403 120.070053 -1.639564 -4.824356 3.651756 
51.556511 43.047852 121.303146 -1.291316 -5.417147 2.876113 
56.158909 43.047852 123.115379 -1.016318 -5.417145 2.984395 
55.678802 43.760941 124.525208 -0.707253 -5.863486 2.092774 
60.564800 43.760941 125.937271 -0.509224 -5.862751 2.151980 
42.095543 36.549583 109.809631 -3.961558 -1.341213 4.671558 
45.385956 38.128189 112.955414 -3.331954 -2.333108 4.771739 
48.870018 39.605576 116.023720 -2.641299 -3.260858 4.658563 
52.592308 40.941456 118.996147 -1.943078 -4.098958 4.327762 
56.594643 42.099403 121.835869 -1.290408 -4.824349 3.789248 
60.910782 43.047852 124.488686 -0.732390 -5.417146 3.066451 
65.561562 43.760941 126.885597 -0.315824 -5.863052 2.187725 
45.025486 33.262451 111.903191 -3.754925 0.503511 5.009562 
45.788025 34.912792 112.379608 -3.569997 -0.290546 5.145303 
49.472652 36.549583 114.960831 -3.021023 -1.341220 5.328300 
53.490299 36.549583 116.996071 -2.508802 -1.341210 5.587780 
53.291920 38.128189 117.437920 -2.383781 -2.333113 5.309330 
57.524746 38.128189 119.104637 -1.876135 -2.333111 5.509223 
57.286999 39.605576 119.802773 -1.726342 -3.260859 5.069359 
61.723717 39.605576 121.084999 -1.244052 -3.260860 5.208743 
61.498245 40.941456 122.029015 -1.102046 -4.098953 4.614175 
66.124931 40.941456 122.907104 -0.665125 -4.098954 4.697096 
65.959885 42.099403 124.072655 -0.561230 -4.824355 3.963398 
70.758331 42.099403 124.523972 -0.187628 -4.824350 3.998542 
70.694977 43.047852 125.874161 -0.147774 -5.417148 3.149233 
75.641312 43.047852 125.874161 0.147774 -5.417147 3.149234 
75.711121 43.760941 127.361855 0.107368 -5.863551 2.206242 
80.774727 43.760941 126.885597 0.315824 -5.863053 2.187725 
50.690247 33.262451 115.442917 -2.877615 0.511981 5.559762 
53.579571 34.912792 116.797241 -2.551630 -0.299927 5.719353 
57.680878 36.549583 118.646156 -1.974528 -1.341214 5.798157 
61.895042 38.128189 120.367661 -1.351996 -2.333117 5.660696 
66.261009 39.605576 121.946121 -0.750832 -3.260857 5.302351 
70.813507 40.941456 123.348091 -0.222361 -4.098954 4.738742 
75.577957 42.099403 124.523972 0.187627 -4.824350 3.998542 
80.565918 43.047852 125.410980 0.442024 -5.417147 3.121558 
85.771484 43.760941 125.937271 0.509223 -5.862750 2.151981 
62.007557 36.549583 119.896576 -1.422903 -1.341218 5.957577 
66.432320 36.549583 120.736343 -0.858774 -1.341218 6.064641 
66.364410 38.128189 121.215897 -0.815980 -2.333115 5.762427 
70.893570 38.128189 121.641884 -0.272792 -2.333116 5.813516 
70.859001 39.605576 122.378586 -0.251012 -3.260863 5.349358 
75.477287 39.605576 122.378586 0.251014 -3.260864 5.349358 
75.522781 40.941456 123.348091 0.222361 -4.098954 4.738741 
80.211357 40.941456 122.907104 0.665126 -4.098955 4.697096 
80.376404 42.099403 124.072655 0.561232 -4.824354 3.963398 
85.111504 42.099403 123.173988 0.929904 -4.824352 3.893431 
85.425507 43.047852 124.488686 0.732390 -5.417148 3.066449 
90.177376 43.047852 123.115379 1.016318 -5.417145 2.984396 
90.657486 43.760941 124.525208 0.709199 -5.863319 2.092644 
95.389786 43.760941 122.661812 0.903118 -5.862053 2.021221 
63.213509 33.262451 120.001015 -1.228470 0.507062 6.138978 
66.462875 34.912792 120.520538 -0.864362 -0.300844 6.202789 
70.916275 36.549583 121.158081 -0.287099 -1.341217 6.118411 
75.442719 38.128189 121.641884 0.272792 -2.333116 5.813516 
80.075279 39.605576 121.946121 0.750830 -3.260856 5.302352 
84.838043 40.941456 122.029015 1.102045 -4.098951 4.614176 
89.741646 42.099403 121.835869 1.290405 -4.824348 3.789251 
94.779778 43.047852 121.303146 1.291316 -5.417145 2.876115 
99.926804 43.760941 120.363472 1.095952 -5.863188 1.919072 
75.420013 36.549583 121.158081 0.287099 -1.341218 6.118411 
79.971878 38.128189 121.215897 0.815980 -2.333115 5.762428 
84.612572 39.605576 121.084999 1.244053 -3.260862 5.208741 
89.362167 40.941456 120.721535 1.529283 -4.098961 4.490697 
94.226143 42.099403 120.070053 1.639565 -4.824358 3.651754 
99.192245 43.047852 119.067894 1.554965 -5.417149 2.742550 
104.228668 43.760941 117.650368 1.264824 -5.862206 1.816204 
76.508026 33.262451 120.930664 0.519623 0.506295 6.239036 
79.873413 34.912792 120.520538 0.890757 -0.301766 6.199045 
79.903969 36.549583 120.736343 0.858774 -1.341218 6.064642 
84.328728 36.549583 119.896576 1.422902 -1.341218 5.957577 
84.441246 38.128189 120.367661 1.351998 -2.333118 5.660696 
88.811546 38.128189 119.104637 1.876134 -2.333108 5.509224 
89.049286 39.605576 119.802773 1.726342 -3.260858 5.069359 
93.346443 39.605576 118.110725 2.193458 -3.260856 4.885430 
93.743980 40.941456 118.996147 1.943078 -4.098958 4.327762 
97.944977 40.941456 116.868027 2.339799 -4.098954 4.126797 
98.525574 42.099403 117.892059 1.974317 -4.824353 3.482182 
102.602165 42.099403 115.321037 2.291718 -4.824353 3.282003 
103.376015 43.047852 116.429276 1.804948 -5.417147 2.584895 
107.294319 43.047852 113.410477 2.039069 -5.417150 2.404515 
108.257568 43.760941 114.546364 1.426044 -5.863192 1.688275 
111.978104 43.760941 111.078720 1.579798 -5.862256 1.549911 
88.655411 36.549583 118.646156 1.974528 -1.341217 5.798155 
93.044365 38.128189 117.437920 2.383783 -2.333117 5.309328 
97.466270 39.605576 116.023720 2.641298 -3.260862 4.658561 
101.928223 40.941456 114.355873 2.715957 -4.098957 3.889560 
106.420090 42.099403 112.379570 2.588979 -4.824354 3.052980 
110.912720 43.047852 110.038025 2.255272 -5.417150 2.203005 
115.357574 43.760941 107.277916 1.723108 -5.863212 1.383684 
92.845985 36.549583 116.996071 2.508801 -1.341209 5.587782 
97.102516 38.128189 115.382156 2.870481 -2.333113 5.062779 
101.372566 39.605576 113.560097 3.065925 -3.260864 4.390757 
105.658730 40.941456 111.481758 3.068250 -4.098949 3.618148 
109.945801 42.099403 109.093506 2.863489 -4.824352 2.797130 
114.199417 43.047852 106.341553 2.451658 -5.417146 1.982144 
118.366287 43.760941 103.177353 1.846008 -5.861343 1.226168 
89.543777 33.262451 118.159828 2.225318 0.502805 5.852014 
92.756714 34.912792 116.797241 2.575881 -0.302691 5.708444 
96.863632 36.549583 114.960831 3.021025 -1.341215 5.328300 
100.673042 36.549583 112.558311 3.506697 -1.341210 5.021998 
100.950333 38.128189 112.955414 3.331952 -2.333113 4.771739 
104.554001 38.128189 110.179024 3.764143 -2.333113 4.438765 
105.030998 39.605576 110.741516 3.463610 -3.260859 4.084369 
108.409416 39.605576 107.592735 3.830862 -3.260855 3.742085 
109.103714 40.941456 108.270935 3.393578 -4.098948 3.314935 
112.232887 40.941456 104.751633 3.689079 -4.098954 2.982584 
113.148308 42.099403 105.491737 3.112837 -4.824352 2.516699 
115.999458 42.099403 101.605904 3.334824 -4.824353 2.214149 
117.125534 43.047852 102.353561 2.626493 -5.417149 1.743854 
119.665352 43.047852 98.109085 2.778250 -5.417148 1.490244 
120.977791 43.760941 98.813072 1.945487 -5.863020 1.049448 
101.310799 33.262451 111.903191 3.754930 0.503508 5.009558 
104.099777 34.912792 109.643394 4.058676 -0.303649 4.769536 
107.535370 36.549583 106.738945 4.381602 -1.341225 4.280059 
110.527985 36.549583 103.373230 4.763142 -1.341215 3.850956 
110.904617 38.128189 103.677742 4.525784 -2.333114 3.659053 
113.595772 38.128189 100.009979 4.848536 -2.333116 3.219177 
114.210182 39.605576 100.417923 4.461425 -3.260855 2.962157 
116.581558 39.605576 96.454948 4.719203 -3.260857 2.531364 
117.436852 40.941456 96.913727 4.180516 -4.098949 2.242416 
119.465904 40.941456 92.664001 4.372129 -4.098952 1.841091 
120.550812 42.099403 93.120850 3.689193 -4.824351 1.553508 
122.211014 42.099403 88.596191 3.818456 -4.824349 1.201222 
123.500397 43.047852 89.001816 3.007394 -5.417150 0.946076 
124.761925 43.047852 84.219055 3.082774 -5.417149 0.660301 
126.218224 43.760941 84.530975 2.165379 -5.861959 0.461720 
127.049149 43.760941 79.513359 2.194885 -5.862969 0.263526 
117.445328 36.549583 91.813141 5.645060 -1.341213 2.377118 
118.996719 36.549583 87.585030 5.842850 -1.341224 1.838059 
119.458733 38.128189 87.730377 5.551688 -2.333114 1.746468 
120.618965 38.128189 83.331665 5.690837 -2.333115 1.218924 
121.340111 39.605576 83.486130 5.236476 -3.260856 1.121604 
122.094635 39.605576 78.929901 5.318496 -3.260856 0.626324 
123.058548 40.941456 79.043411 4.711395 -4.098959 0.554830 
123.389496 40.941456 74.345787 4.742645 -4.098961 0.111210 
124.566353 42.099403 74.373383 4.001837 -4.824356 0.093840 
124.453369 42.099403 69.555084 3.993037 -4.824358 -0.281312 
125.801704 43.047852 69.460091 3.144906 -5.417147 -0.221561 
125.223198 43.047852 64.547699 3.110343 -5.417144 -0.515080 
126.692513 43.760941 64.304375 2.181524 -5.862600 -0.365384 
125.627312 43.760941 59.331223 2.138997 -5.862862 -0.559654 
120.881180 36.549583 78.786995 6.083108 -1.341210 0.716371 
121.197685 36.549583 74.294388 6.123459 -1.341219 0.143586 
121.681885 38.128189 74.305740 5.818318 -2.333104 0.136434 
121.575241 38.128189 69.757843 5.805524 -2.333114 -0.409001 
122.310928 39.605576 69.706017 5.342008 -3.260857 -0.376344 
121.770798 39.605576 65.119423 5.283294 -3.260855 -0.874928 
122.728325 40.941456 64.960854 4.680214 -4.098953 -0.775055 
121.742012 40.941456 60.356030 4.587065 -4.098961 -1.209912 
122.880264 42.099403 60.055801 3.870555 -4.824357 -1.020920 
121.433968 42.099403 55.458302 3.757951 -4.824355 -1.378879 
122.702919 43.047852 54.992691 2.959749 -5.417147 -1.086000 
120.783287 43.047852 50.434044 2.845046 -5.417149 -1.358384 
122.127281 43.760941 49.792347 1.991508 -5.863532 -0.955605 
119.723206 43.760941 45.310455 1.894111 -5.862974 -1.139905 
120.785004 33.262451 78.172874 6.238250 0.487799 0.540907 
120.979782 34.912792 74.289276 6.261095 -0.306528 0.139497 
121.092102 36.549583 69.791885 6.110000 -1.341211 -0.430449 
121.043198 38.128189 65.239914 5.741714 -2.333114 -0.950845 
120.803535 39.605576 60.603569 5.178145 -3.260860 -1.365819 
120.328835 40.941456 55.863796 4.453617 -4.098957 -1.634134 
119.563507 42.099403 51.016434 3.612317 -4.824354 -1.724722 
118.445206 43.047852 46.075184 2.705346 -5.417149 -1.618830 
116.910004 43.760941 41.073376 1.785653 -5.862873 -1.303826 
120.565369 36.549583 65.319046 6.042844 -1.341213 -1.000711 
119.622101 36.549583 60.915192 5.922583 -1.341217 -1.562178 
120.090416 38.128189 60.791664 5.627450 -2.333107 -1.484330 
118.725288 38.128189 56.452175 5.463725 -2.333118 -2.004767 
119.417664 39.605576 56.198128 5.027497 -3.260862 -1.844702 
117.625343 39.605576 51.941818 4.832662 -3.260864 -2.307383 
118.501205 40.941456 51.523636 4.281026 -4.098954 -2.043999 
116.275185 40.941456 47.373688 4.070809 -4.098957 -2.435899 
117.285324 42.099403 46.769238 3.434940 -4.824354 -2.055406 
114.619438 42.099403 42.754036 3.227376 -4.824353 -2.368026 
115.709236 43.047852 41.954422 2.541870 -5.417148 -1.865048 
112.599411 43.047852 38.107960 2.356054 -5.417150 -2.094878 
113.712402 43.760941 37.118351 1.653072 -5.863348 -1.465967 
110.158493 43.760941 33.480125 1.512249 -5.861985 -1.617115 
120.319901 33.262451 64.854019 6.144632 0.484548 -1.205620 
119.411346 34.912792 60.970779 6.053954 -0.307491 -1.603180 
118.270592 36.549583 56.619011 5.750275 -1.341211 -2.109909 
116.959801 38.128189 52.259586 5.251988 -2.333115 -2.507590 
115.442329 39.605576 47.872051 4.595364 -3.260859 -2.749780 
113.670341 40.941456 43.450420 3.824828 -4.098950 -2.806392 
111.589279 42.099403 39.006115 2.991448 -4.824354 -2.659837 
109.143059 43.047852 34.569618 2.149534 -5.417148 -2.306297 
106.279518 43.760941 30.190683 1.343580 -5.863159 -1.754754 
116.522728 36.549583 52.468269 5.527434 -1.341209 -2.639102 
114.809471 38.128189 48.250744 4.994101 -2.333108 -2.988374 
112.887817 39.605576 44.024582 4.317680 -3.260859 -3.168015 
110.709564 40.941456 39.788315 3.545222 -4.098955 -3.152223 
108.221474 42.099403 35.558411 2.729237 -4.824350 -2.928276 
105.370560 43.047852 31.370472 1.924123 -5.417149 -2.497447 
102.109550 43.760941 27.278931 1.183172 -5.862420 -1.869576 
116.201637 33.262451 52.179306 5.572967 0.485651 -2.854489 
114.206833 34.912792 48.611351 5.371435 -0.308476 -3.219937 
114.393860 36.549583 48.499435 5.256019 -1.341208 -3.145102 
111.902702 36.549583 44.747395 4.938409 -1.341212 -3.623465 
112.293198 38.128189 44.460873 4.692317 -2.333114 -3.442899 
109.433090 38.128189 40.923286 4.349301 -2.333113 -3.867167 
109.984238 39.605576 40.433231 4.002047 -3.260860 -3.558408 
106.757126 39.605576 37.129555 3.651247 -3.260865 -3.917528 
107.418869 40.941456 36.419552 3.234468 -4.098953 -3.470352 
103.827179 40.941456 33.373737 2.895284 -4.098956 -3.757983 
104.545616 42.099403 32.441219 2.443035 -4.824352 -3.170978 
100.594017 42.099403 29.681944 2.135362 -4.824354 -3.385813 
101.315071 43.047852 28.538652 1.681804 -5.417148 -2.666653 
97.012215 43.047852 26.099033 1.424705 -5.417148 -2.812422 
97.685242 43.760941 24.770454 1.002150 -5.863240 -1.969499 
93.045486 43.760941 22.687294 0.815156 -5.862189 -2.057786 
109.071136 36.549583 41.245113 4.577401 -1.341212 -4.069985 
106.254280 38.128189 37.669067 3.968059 -2.333121 -4.257448 
103.234825 39.605576 34.142586 3.268360 -3.260863 -4.242224 
99.966049 40.941456 30.677635 2.530660 -4.098953 -4.012590 
96.401390 42.099403 27.304825 1.808931 -4.824349 -3.570897 
92.499825 43.047852 24.073061 1.155086 -5.417148 -2.933476 
88.231041 43.760941 21.047764 0.606619 -5.863214 -2.125002 
105.924057 36.549583 38.023376 4.176173 -1.341203 -4.480735 
102.784714 38.128189 34.726814 3.551955 -2.333115 -4.610314 
99.448303 39.605576 31.498577 2.856755 -3.260855 -4.529640 
95.869431 40.941456 28.354942 2.143798 -4.098952 -4.231934 
92.004601 42.099403 25.330751 1.466598 -4.824351 -3.724597 
87.817543 43.047852 22.478540 0.875315 -5.417148 -3.028750 
83.284225 43.760941 19.866268 0.414248 -5.861670 -2.175945 
68.087784 43.760941 19.153196 -0.213839 -5.863291 -2.199282 
73.168144 40.941456 22.932983 0.000000 -4.098953 -4.743957 
68.353813 42.099403 21.981716 -0.374841 -4.824354 -3.985349 
73.168144 42.099403 21.755812 0.000000 -4.824352 -4.002939 
68.227242 43.047852 20.635977 -0.295223 -5.417147 -3.138846 
73.168144 43.047852 20.404131 -0.000000 -5.417149 -3.152696 
73.168144 43.760941 18.914804 0.005321 -5.862388 -2.212696 
53.290802 43.760941 22.687294 -0.804856 -5.862577 -2.060449 
58.518742 43.047852 22.478540 -0.875316 -5.417146 -3.028751 
63.581799 42.099403 22.657450 -0.746388 -4.824354 -3.932736 
68.464050 40.941456 23.153719 -0.444231 -4.098954 -4.723110 
73.168144 39.605576 23.903557 -0.000000 -3.260863 -5.355245 
53.836464 43.047852 24.073061 -1.155086 -5.417148 -2.933475 
58.894024 42.099403 23.777075 -1.111376 -4.824351 -3.845565 
63.801292 40.941456 23.813982 -0.884558 -4.098955 -4.660757 
68.554932 39.605576 24.120026 -0.501473 -3.260859 -5.331716 
36.177792 43.760941 33.480125 -1.502956 -5.862755 -1.622260 
40.965725 43.047852 31.370472 -1.924124 -5.417147 -2.497450 
45.742271 42.099403 29.681944 -2.135364 -4.824352 -3.385814 
50.466858 40.941456 28.354942 -2.143795 -4.098955 -4.231933 
55.118584 39.605576 27.329155 -1.962054 -3.260861 -4.982869 
59.695084 38.128189 26.548901 -1.615840 -2.333107 -5.591108 
64.210091 36.549583 25.967953 -1.142094 -1.341212 -6.017724 
24.539740 43.047852 93.645424 -2.905593 -5.417147 1.223537 
24.125271 42.099403 88.596191 -3.818454 -4.824352 1.201220 
24.047129 40.941456 83.689407 -4.638741 -4.098956 0.993576 
24.241652 39.605576 78.929901 -5.318491 -3.260864 0.626325 
24.654404 38.128189 74.305740 -5.818316 -2.333109 0.136433 
25.244184 36.549583 69.791885 -6.110000 -1.341212 -0.430451 
25.985949 34.912792 65.354660 -6.180321 -0.296348 -1.011076 
26.016388 33.262451 64.854019 -6.144309 0.479962 -1.209537 
34.358181 43.760941 111.078720 -1.586590 -5.862515 1.541720 
32.136868 43.047852 106.341553 -2.451658 -5.417147 1.982141 
30.336826 42.099403 101.605904 -3.334827 -4.824351 2.214150 
28.899435 40.941456 96.913727 -4.180515 -4.098952 2.242414 
27.764883 39.605576 92.287331 -4.935505 -3.260861 2.078327 
26.877556 38.128189 87.730377 -5.551687 -2.333119 1.746468 
26.190922 36.549583 83.230225 -5.989295 -1.341218 1.282853 
25.671572 34.912792 78.761505 -6.217834 -0.294412 0.746475 
25.551281 33.262451 78.172874 -6.238167 0.488720 0.540810 
35.423569 43.047852 110.038025 -2.255270 -5.417151 2.203006 
33.187981 42.099403 105.491737 -3.112836 -4.824352 2.516700 
31.317524 40.941456 100.954773 -3.952163 -4.098952 2.624030 
29.754732 39.605576 96.454948 -4.719203 -3.260856 2.531363 
28.444584 38.128189 92.001106 -5.363754 -2.333113 2.258659 
27.339571 36.549583 87.585030 -5.842851 -1.341217 1.838061 
50.946499 43.760941 122.661812 -0.911736 -5.862697 2.014997 
47.144043 43.047852 119.067894 -1.554962 -5.417150 2.742550 
43.734119 42.099403 115.321037 -2.291717 -4.824353 3.282004 
40.677555 40.941456 111.481758 -3.068248 -4.098955 3.618145 
37.926872 39.605576 107.592735 -3.830859 -3.260859 3.742083 
35.431667 38.128189 103.677742 -4.525781 -2.333123 3.659053 
33.144016 36.549583 99.742081 -5.102820 -1.341212 3.388009 
65.770370 43.047852 125.410980 -0.442023 -5.417147 3.121558 
61.224781 42.099403 123.173988 -0.929904 -4.824353 3.893430 
56.974121 40.941456 120.721535 -1.529281 -4.098959 4.490698 
52.989845 39.605576 118.110725 -2.193460 -3.260855 4.885430 
49.233768 38.128189 115.382156 -2.870483 -2.333108 5.062781 
45.663242 36.549583 112.558311 -3.506701 -1.341210 5.021996 
121.796547 43.047852 93.645424 2.905591 -5.417149 1.223536 
118.474213 42.099403 97.470161 3.527508 -4.824353 1.892143 
115.018761 40.941456 100.954773 3.952163 -4.098951 2.624031 
111.478134 39.605576 104.141426 4.164443 -3.260859 3.366910 
107.881844 38.128189 107.077385 4.163259 -2.333118 4.066776 
104.240746 36.549583 109.809631 3.961557 -1.341217 4.671557 
127.406570 43.760941 74.439980 2.211103 -5.862638 0.058077 
125.570045 43.047852 79.339172 3.131066 -5.417145 0.368726 
123.440224 42.099403 83.935959 3.914161 -4.824349 0.838378 
121.088097 40.941456 88.242943 4.525322 -4.098950 1.423591 
118.571404 39.605576 92.287331 4.935505 -3.260861 2.078327 
115.931641 38.128189 96.106339 5.128679 -2.333117 2.751005 
113.192268 36.549583 99.742081 5.102819 -1.341211 3.388010 
125.917656 43.047852 74.405067 3.151837 -5.417144 0.073909 
124.227646 42.099403 79.181091 3.975468 -4.824352 0.468167 
122.289162 40.941456 83.689407 4.638741 -4.098957 0.993574 
120.162254 39.605576 87.951691 5.108435 -3.260864 1.607027 
117.891701 38.128189 92.001106 5.363755 -2.333111 2.258662 
115.504829 36.549583 95.877396 5.397657 -1.341216 2.895284 
113.010696 34.912792 99.621521 5.222703 -0.304592 3.456089 
110.897423 33.262451 102.645493 4.996282 0.495803 3.773592 
124.101097 43.760941 54.479668 2.078277 -5.862811 -0.755344 
124.187241 43.047852 59.711063 3.048441 -5.417146 -0.804073 
123.889687 42.099403 64.768532 3.949154 -4.824353 -0.653989 
123.279099 40.941456 69.637810 4.732223 -4.098958 -0.333386 
122.419189 39.605576 74.323029 5.353776 -3.260857 0.125541 
121.362190 38.128189 78.843643 5.779975 -2.333107 0.680670 
120.145363 36.549583 83.230225 5.989293 -1.341221 1.282853 
118.788803 34.912792 87.519623 5.976570 -0.305550 1.871252 
117.560913 33.262451 91.103989 5.845263 0.492121 2.244581 
41.688690 23.838161 35.652393 -4.015470 0.451729 -4.785612 
45.580482 23.838161 32.704475 -3.594189 0.462731 -5.115426 
47.216232 23.838161 31.636402 -3.283774 0.398503 -5.324114 
49.746452 23.838161 30.158707 -2.954670 0.455670 -5.508996 
53.248894 23.838161 28.428778 -2.650728 0.400659 -5.666245 
54.145195 23.838161 28.040379 -2.317977 0.462463 -5.808194 
58.732998 23.838161 26.370556 -1.958090 0.464710 -5.938916 
32.567410 23.838161 45.782604 -5.131948 0.428287 -3.576058 
34.879250 23.838161 42.633770 -4.889311 0.445314 -3.895184 
36.773865 23.838161 40.398586 -4.696761 0.320847 -4.129350 
38.109756 23.838161 38.973160 -4.414055 0.462409 -4.427448 
29.151201 23.838161 51.699646 -5.675196 0.410794 -2.628275 
29.588156 23.838161 50.825989 -5.509434 0.463135 -2.958648 
32.029274 23.838161 46.597843 -5.313737 0.468970 -3.295655 
24.938826 23.838161 64.664017 -6.149881 0.468024 -1.083526 
26.025225 23.838161 59.904182 -6.041010 0.470768 -1.605302 
26.591734 23.838161 58.034550 -5.938151 0.402024 -1.965107 
27.580153 23.838161 55.276176 -5.799385 0.467831 -2.329090 
30.755993 23.838161 97.654808 -5.410113 0.453190 3.123155 
28.528664 23.838161 93.310242 -5.661279 0.462657 2.652511 
27.760860 23.838161 91.513878 -5.813745 0.397702 2.308896 
26.744980 23.838161 88.765495 -5.938590 0.455809 1.952388 
25.649525 23.838161 85.015869 -6.040103 0.401853 1.627245 
25.422674 23.838161 84.065735 -6.122528 0.464517 1.272533 
24.574879 23.838161 79.257668 -6.188316 0.465741 0.898682 
24.463091 23.838161 78.287254 -6.230876 0.427333 0.550713 
24.210032 23.838161 74.389084 -6.248529 0.449087 0.162264 
24.224642 23.838161 71.459000 -6.252109 0.321847 -0.143617 
24.331749 23.838161 69.508362 -6.225492 0.470297 -0.561391 
39.148407 23.838161 108.396614 -4.411020 0.431478 4.434218 
36.448860 23.838161 105.573105 -4.684215 0.444596 4.139711 
34.576630 23.838161 103.319138 -4.882932 0.319469 3.907719 
33.404831 23.838161 101.756020 -5.126884 0.461989 3.577951 
50.176556 23.838161 116.409027 -2.962684 0.401431 5.508770 
47.631725 23.838161 114.956642 -3.296495 0.454545 5.311730 
44.382339 23.838161 112.788406 -3.581052 0.401352 5.129090 
43.597828 23.838161 112.206383 -3.870008 0.461809 4.912492 
39.857815 23.838161 109.068138 -4.170130 0.473339 4.658297 
56.418278 23.838161 119.188026 -2.132561 0.469854 5.868815 
51.919411 23.838161 117.291595 -2.631826 0.473890 5.669100 
89.918007 23.838161 119.188026 2.135863 0.456103 5.869931 
85.252678 23.838161 120.627090 1.630308 0.463643 6.035405 
83.350273 23.838161 121.071297 1.264260 0.397727 6.126353 
80.467239 23.838161 121.594482 0.890118 0.457007 6.187418 
76.584351 23.838161 122.022179 0.554990 0.403622 6.230565 
75.609261 23.838161 122.080605 0.187893 0.467601 6.250130 
70.727028 23.838161 122.080605 -0.188063 0.467855 6.250090 
69.751938 23.838161 122.022179 -0.539241 0.427933 6.231801 
65.869049 23.838161 121.594482 -0.927025 0.451169 6.181213 
62.986015 23.838161 121.071297 -1.225387 0.323992 6.132240 
61.083611 23.838161 120.627090 -1.636706 0.475290 6.031945 
111.759659 23.838161 103.319138 4.911535 0.404948 3.872296 
109.887428 23.838161 105.573105 4.659525 0.454227 4.167825 
107.187881 23.838161 108.396614 4.428840 0.400336 4.417977 
106.478470 23.838161 109.068138 4.165945 0.461217 4.664263 
102.738457 23.838161 112.206383 3.870014 0.461815 4.912489 
101.953949 23.838161 112.788406 3.595186 0.423498 5.119374 
98.704567 23.838161 114.956642 3.264522 0.444904 5.331162 
96.159729 23.838161 116.409027 3.000108 0.318969 5.487573 
94.416878 23.838161 117.291595 2.632499 0.462474 5.670590 
118.575424 23.838161 91.513878 5.827259 0.325283 2.268706 
117.807625 23.838161 93.310242 5.661279 0.462657 2.652508 
115.580292 23.838161 97.654808 5.406362 0.460467 3.127444 
112.931458 23.838161 101.756020 5.123860 0.478450 3.578159 
121.397461 23.838161 64.664017 6.151055 0.460498 -1.083684 
122.004539 23.838161 69.508362 6.226403 0.465739 -0.558570 
122.111641 23.838161 71.459000 6.252698 0.398524 -0.181758 
122.126259 23.838161 74.389084 6.247593 0.459353 0.199736 
121.873199 23.838161 78.287254 6.232132 0.405893 0.533575 
121.761406 23.838161 79.257668 6.186843 0.471844 0.902910 
120.913612 23.838161 84.065735 6.122286 0.471110 1.269126 
120.686760 23.838161 85.015869 6.043562 0.429246 1.612215 
119.591309 23.838161 88.765495 5.925130 0.454552 1.988398 
109.562424 23.838161 40.398586 4.664504 0.409718 -4.165547 
111.457039 23.838161 42.633770 4.912708 0.454949 -3.865990 
113.768883 23.838161 45.782604 5.120091 0.400132 -3.594186 
114.307014 23.838161 46.597843 5.317033 0.461405 -3.292289 
116.748131 23.838161 50.825989 5.509429 0.463141 -2.958659 
117.185089 23.838161 51.699646 5.666241 0.425438 -2.650265 
118.756134 23.838161 55.276176 5.816388 0.446299 -2.290284 
119.744553 23.838161 58.034550 5.925089 0.319252 -2.001744 
120.311066 23.838161 59.904182 6.041737 0.463976 -1.606355 
99.120056 23.838161 31.636402 3.244094 0.329122 -5.345404 
100.755806 23.838161 32.704475 3.594189 0.462732 -5.115426 
104.647598 23.838161 35.652393 4.019307 0.459781 -4.780810 
108.226532 23.838161 38.973160 4.415195 0.484490 -4.421818 
96.589836 23.838161 30.158707 2.989270 0.459299 -5.487889 
93.087395 23.838161 28.428778 2.635758 0.431188 -5.672153 
92.191093 23.838161 28.040379 2.320172 0.466583 -5.806715 
87.603287 23.838161 26.370556 1.958089 0.464713 -5.938916 
86.667023 23.838161 26.091951 1.605256 0.408671 -6.045055 
82.872025 23.838161 25.165831 1.283893 0.462939 -6.117000 
79.983917 23.838161 24.671413 0.905696 0.399978 -6.189225 
78.044312 23.838161 24.438169 0.530141 0.468988 -6.228405 
73.168144 23.838161 24.194811 0.001293 0.466385 -6.244901 
68.291977 23.838161 24.438169 -0.530776 0.466555 -6.228703 
66.352371 23.838161 24.671413 -0.943091 0.320235 -6.182447 
63.464268 23.838161 25.165831 -1.246533 0.448768 -6.125133 
59.669262 23.838161 26.091951 -1.624025 0.428205 -6.040546 
82.883034 22.213120 25.111340 1.255803 -0.311704 -6.105359 
96.616425 22.213120 30.109882 2.990977 -0.302966 -5.467921 
111.500504 22.213120 42.599110 4.886449 -0.311698 -3.869763 
118.807884 22.213120 55.255867 5.805936 -0.302964 -2.266107 
122.181831 22.213120 74.390472 6.230672 -0.311705 0.176537 
119.644005 22.213120 88.783203 5.904228 -0.302979 1.996044 
109.929108 22.213120 105.609894 4.659496 -0.311698 4.140235 
98.733551 22.213120 115.004074 3.239870 -0.302967 5.324227 
80.475525 22.213120 121.649452 0.908087 -0.311703 6.166672 
65.860764 22.213120 121.649452 -0.940461 -0.302968 6.161142 
47.602734 22.213120 115.004074 -3.268222 -0.311692 5.307655 
36.407177 22.213120 105.609894 -4.680740 -0.302962 4.115191 
26.692282 22.213120 88.783203 -5.915296 -0.311704 1.965123 
24.154459 22.213120 74.390472 -6.230849 -0.302971 0.143701 
27.528404 22.213120 55.255867 -5.794538 -0.311699 -2.296907 
34.835785 22.213120 42.599110 -4.865474 -0.302972 -3.895033 
49.719864 22.213120 30.109882 -2.962447 -0.311698 -5.484190 
63.453251 22.213120 25.111340 -1.223490 -0.302970 -6.111235 
78.908165 13.594158 38.770103 -0.373462 -5.806363 2.362621 
76.640442 13.594158 38.467766 -0.213348 -5.814654 2.362507 
76.792610 13.039120 36.947029 -0.158376 -6.046602 1.635008 
84.491608 13.594158 40.184021 -0.812308 -5.801929 2.262330 
83.447342 13.594158 39.843807 -0.663381 -5.811378 2.284637 
83.897820 13.039120 38.383381 -0.480864 -6.046217 1.571723 
98.825539 13.594158 49.548847 -1.790928 -5.802651 1.600266 
98.133049 13.594158 48.818062 -1.669924 -5.812900 1.689562 
99.227127 13.039120 47.750927 -1.174031 -6.046247 1.150169 
105.104523 13.594158 59.159550 -2.184907 -5.806712 0.972007 
104.201241 13.594158 57.258404 -2.104376 -5.812551 1.104867 
105.561256 13.039120 56.561161 -1.459662 -6.046389 0.754799 
106.974693 13.594158 64.607162 -2.335563 -5.803172 0.553057 
106.738388 13.594158 63.722942 -2.278322 -5.811288 0.685171 
108.209595 13.039120 63.309010 -1.581048 -6.046296 0.448398 
107.922707 13.594158 76.047989 -2.386539 -5.805598 -0.187723 
108.030975 13.594158 74.037567 -2.376436 -5.812592 -0.034260 
109.558830 13.039120 74.075668 -1.643183 -6.046288 -0.034975 
106.974693 13.594158 81.729126 -2.311914 -5.805023 -0.627815 
107.167458 13.594158 80.928268 -2.328926 -5.811273 -0.486044 
108.657471 13.039120 81.268349 -1.602716 -6.046365 -0.362523 
102.363213 13.594158 92.242233 -2.007983 -5.805610 -1.303425 
103.369629 13.594158 90.604980 -2.071994 -5.811923 -1.167206 
104.693199 13.039120 91.369148 -1.426691 -6.046193 -0.816523 
98.825539 13.594158 96.787437 -1.733048 -5.805246 -1.652687 
99.315765 13.594158 96.243561 -1.813193 -5.812186 -1.537072 
100.461678 13.039120 97.254829 -1.233795 -6.046458 -1.084900 
89.766182 13.594158 103.838623 -1.139672 -5.806697 -2.102522 
91.352509 13.594158 102.925529 -1.263203 -5.812581 -2.013113 
92.149429 13.039120 104.229637 -0.862737 -6.046103 -1.399528 
84.491608 13.594158 106.152267 -0.735375 -5.805844 -2.277247 
85.095642 13.594158 105.938675 -0.857994 -5.810963 -2.219648 
85.618362 13.039120 107.374832 -0.564306 -6.046574 -1.542639 
73.168144 13.594158 108.041817 0.015671 -5.794036 -2.424183 
74.906456 13.594158 107.998466 -0.147477 -5.812487 -2.372235 
74.982635 13.039120 109.524895 -0.085917 -6.046382 -1.640948 
56.570110 13.594158 103.838623 1.168420 -5.795157 -2.120750 
58.037025 13.594158 104.588234 1.004978 -5.811704 -2.155772 
57.373909 13.039120 105.965218 0.709357 -6.046328 -1.482362 
43.973072 13.594158 92.242233 2.034641 -5.797697 -1.301421 
44.852882 13.594158 93.525429 1.909858 -5.812652 -1.414029 
43.611977 13.039120 94.417580 1.332011 -6.046282 -0.962683 
38.413582 13.594158 76.047989 2.409428 -5.797222 -0.176489 
38.565117 13.594158 77.504463 2.354828 -5.812048 -0.328845 
37.048649 13.039120 77.694504 1.630307 -6.046244 -0.208418 
41.231762 13.594158 59.159550 2.198549 -5.798625 0.992869 
40.705154 13.594158 60.427361 2.226801 -5.811521 0.836702 
39.282475 13.039120 59.868999 1.531501 -6.046218 0.596718 
43.973072 13.594158 54.094051 1.965470 -5.809272 1.348662 
43.873352 13.594158 54.247562 2.028140 -5.811211 1.243328 
42.589520 13.039120 53.418373 1.377884 -6.047589 0.888941 
51.748291 13.594158 45.647915 1.452689 -5.801327 1.917840 
50.751778 13.594158 46.453362 1.556435 -5.812760 1.795232 
49.769390 13.039120 45.282593 1.059590 -6.046203 1.256564 
67.428123 13.594158 38.770103 0.366421 -5.800281 2.379775 
66.258057 13.594158 38.985928 0.508434 -5.811648 2.323470 
65.955231 13.039120 37.487904 0.329507 -6.046202 1.610313 
69.695847 13.594158 38.467766 0.223413 -5.810771 2.371038 
53.523106 13.594158 44.354164 1.329807 -5.812867 1.970013 
45.902809 13.594158 51.424763 1.867741 -5.812179 1.471576 
42.135044 13.594158 57.258404 2.113332 -5.810348 1.100093 
38.824280 13.594158 67.112396 2.340866 -5.813689 0.397967 
38.413582 13.594158 70.288300 2.368263 -5.810364 0.251453 
36.867928 13.039120 70.447815 1.636001 -6.047324 0.121361 
38.305309 13.594158 74.037567 2.382613 -5.810147 -0.043134 
40.110435 13.594158 84.274940 2.251789 -5.811854 -0.766385 
41.231762 13.594158 87.176735 2.205366 -5.808238 -0.912353 
39.987503 13.039120 88.139816 1.495253 -6.047091 -0.676468 
42.966656 13.594158 90.604980 2.068848 -5.810959 -1.178968 
49.448021 13.594158 98.732353 1.612822 -5.811860 -1.748422 
51.748291 13.594158 100.688370 1.504979 -5.807402 -1.855148 
51.188454 13.039120 102.185364 0.989688 -6.046888 -1.309875 
54.983780 13.594158 102.925529 1.258695 -5.809802 -2.024393 
64.562805 13.594158 106.963432 0.580375 -5.812792 -2.304671 
67.428123 13.594158 107.566185 0.440499 -5.807853 -2.347221 
67.742706 13.039120 109.163567 0.242442 -6.046717 -1.624213 
71.429832 13.594158 107.998466 0.137547 -5.809593 -2.380334 
81.773483 13.594158 106.963432 -0.588706 -5.811416 -2.305811 
96.888268 13.594158 98.732353 -1.618879 -5.811401 -1.744439 
106.225853 13.594158 84.274940 -2.254137 -5.811974 -0.759412 
107.512009 13.594158 67.112396 -2.345637 -5.811057 0.407334 
100.433479 13.594158 51.424763 -1.866112 -5.810800 1.479393 
86.714294 13.594158 41.032883 -0.935287 -5.811200 2.189110 
68.286438 22.213120 24.382853 -0.601985 -0.315812 -6.203989 
63.494564 20.600550 25.315706 -1.209260 -1.297186 -5.981860 
68.307198 20.600550 24.590317 -0.607649 -1.297187 -6.072537 
63.587112 19.043087 25.773521 -1.152064 -2.267267 -5.698926 
68.353706 19.043087 25.055073 -0.578907 -2.267270 -5.785315 
63.728455 17.581909 26.472687 -1.064626 -3.178616 -5.266407 
68.424728 17.581909 25.764837 -0.534972 -3.178616 -5.346240 
63.914845 16.255644 27.394712 -0.949163 -4.007426 -4.695237 
68.518387 16.255644 26.700840 -0.476952 -4.007425 -4.766413 
64.141365 15.099358 28.515226 -0.808609 -4.731881 -3.999959 
68.632210 15.099358 27.838339 -0.406323 -4.731883 -4.060591 
64.402016 14.143623 29.804598 -0.646574 -5.332695 -3.198420 
68.763191 14.143623 29.147261 -0.324901 -5.332698 -3.246902 
64.689911 13.413705 31.228746 -0.467250 -5.793687 -2.311355 
68.907860 13.413705 30.592993 -0.234793 -5.793686 -2.346395 
64.997444 12.928910 32.750011 -0.275324 -6.102228 -1.361948 
69.062393 12.928910 32.137318 -0.138349 -6.102227 -1.382594 
65.316475 12.702041 34.328175 -0.075843 -6.249669 -0.375172 
69.222702 12.702041 33.739407 -0.038111 -6.249668 -0.380859 
65.638573 12.739107 35.921513 0.125909 -6.231646 0.622836 
69.384560 12.739107 35.356899 0.063269 -6.231646 0.632280 
69.543678 13.039120 36.947029 0.163089 -6.048225 1.629822 
59.028339 13.039120 39.624565 0.642450 -6.046714 1.511469 
55.758739 13.039120 41.199123 0.783362 -6.048224 1.438493 
58.407593 12.739107 38.151978 0.246826 -6.231646 0.585540 
54.994457 12.739107 39.795654 0.303899 -6.231646 0.558053 
57.776165 12.702041 36.654053 -0.148678 -6.249669 -0.352705 
54.217022 12.702041 38.368046 -0.183057 -6.249669 -0.336149 
57.150749 12.928910 35.170395 -0.539729 -6.102228 -1.280390 
53.446991 12.928910 36.954029 -0.664534 -6.102227 -1.220289 
56.547882 13.413705 33.740231 -0.915972 -5.793687 -2.172943 
52.704723 13.413705 35.591000 -1.127777 -5.793687 -2.070944 
55.983505 14.143623 32.401363 -1.267508 -5.332696 -3.006885 
52.009838 14.143623 34.314983 -1.560600 -5.332696 -2.865740 
55.472538 15.099358 31.189203 -1.585154 -4.731879 -3.760428 
51.380718 15.099358 33.159721 -1.951692 -4.731883 -3.583908 
55.028488 16.255644 30.135792 -1.860687 -4.007426 -4.414071 
50.833988 16.255644 32.155754 -2.290940 -4.007426 -4.206871 
54.663094 17.581909 29.268980 -2.087036 -3.178616 -4.951035 
50.384106 17.581909 31.329632 -2.569629 -3.178615 -4.718632 
54.386021 19.043087 28.611683 -2.258439 -2.267273 -5.357653 
50.042961 19.043087 30.703190 -2.780668 -2.267269 -5.106162 
54.204590 20.600550 28.181280 -2.370565 -1.297181 -5.623643 
49.819580 20.600550 30.292992 -2.918719 -1.297186 -5.359666 
54.123604 22.213120 27.989157 -2.407755 -0.314708 -5.749086 
48.203236 13.594158 48.818062 1.670697 -5.812586 1.689792 
47.510750 13.594158 49.548847 1.777146 -5.806847 1.599019 
47.109158 13.039120 47.750927 1.173185 -6.045762 1.153116 
44.707912 13.039120 50.471867 1.286614 -6.046830 1.020202 
45.965149 12.739107 46.635090 0.454888 -6.231647 0.443685 
43.458488 12.739107 49.475483 0.496805 -6.231645 0.396188 
44.801456 12.702041 45.500057 -0.274006 -6.249668 -0.267258 
42.187565 12.702041 48.461956 -0.299255 -6.249668 -0.238648 
43.648849 12.928910 44.375835 -0.994696 -6.102228 -0.970199 
40.928749 12.928910 47.458084 -1.086353 -6.102228 -0.866338 
42.537796 13.413705 43.292145 -1.688094 -5.793687 -1.646521 
39.715317 13.413705 46.490402 -1.843648 -5.793686 -1.470260 
41.497673 14.143623 42.277641 -2.335960 -5.332696 -2.278430 
38.579353 14.143623 45.584503 -2.551207 -5.332699 -2.034522 
40.555984 15.099358 41.359138 -2.921363 -4.731879 -2.849416 
37.550884 15.099358 44.764328 -3.190552 -4.731882 -2.544382 
39.737621 16.255644 40.560932 -3.429156 -4.007430 -3.344705 
36.657112 16.255644 44.051567 -3.745141 -4.007428 -2.986651 
39.064217 17.581909 39.904114 -3.846306 -3.178620 -3.751582 
35.921658 17.581909 43.465065 -4.200733 -3.178616 -3.349971 
38.553585 19.043087 39.406055 -4.162197 -2.267275 -4.059694 
35.363972 19.043087 43.020325 -4.545733 -2.267265 -3.625098 
38.219215 20.600550 39.079922 -4.368836 -1.297186 -4.261242 
34.998798 20.600550 42.729107 -4.771413 -1.297185 -3.805072 
38.069962 22.213120 38.934341 -4.448997 -0.315805 -4.365581 
29.538683 22.213120 50.800625 -5.539885 -0.314706 -2.856383 
27.722488 20.600550 55.332039 -5.680995 -1.297186 -2.229625 
29.724222 20.600550 50.895744 -5.430764 -1.297195 -2.784192 
28.157282 19.043087 55.502682 -5.412292 -2.267274 -2.124170 
30.139864 19.043087 51.108833 -5.173899 -2.267274 -2.652503 
28.821281 17.581909 55.763283 -5.001527 -3.178617 -1.962957 
30.774616 17.581909 51.434250 -4.781230 -3.178610 -2.451193 
29.696934 16.255644 56.106953 -4.459087 -4.007426 -1.750063 
31.611696 16.255644 51.863396 -4.262680 -4.007422 -2.185348 
30.761089 15.099358 56.524601 -3.798778 -4.731880 -1.490911 
32.628979 15.099358 52.384930 -3.631452 -4.731883 -1.861737 
31.985611 14.143623 57.005192 -3.037551 -5.332697 -1.192151 
33.799568 14.143623 52.985050 -2.903757 -5.332696 -1.488669 
33.338131 13.413705 57.536015 -2.195104 -5.793687 -0.861515 
35.092510 13.413705 53.647907 -2.098417 -5.793687 -1.075795 
34.782879 12.928910 58.103039 -1.293450 -6.102226 -0.507641 
36.473625 12.928910 54.355961 -1.236475 -6.102227 -0.633904 
36.281666 12.702041 58.691269 -0.356303 -6.249668 -0.139838 
37.906399 12.702041 55.090504 -0.340607 -6.249669 -0.174619 
37.794868 12.739107 59.285156 0.591511 -6.231645 0.232151 
39.352947 12.739107 55.832104 0.565457 -6.231645 0.289893 
